# .PCD v0.7 - Point Cloud Data file format
VERSION 0.7
FIELDS x y z
SIZE 4 4 4
TYPE F F F
COUNT 1 1 1
WIDTH 571
HEIGHT 1
VIEWPOINT 0 0 0 1 0 0 0
POINTS 571
DATA ascii
-0.093578003 -0.50158 2.267
-0.092161663 -0.50082666 2.2707
-0.092573255 -0.49425626 2.2711627
-0.092706755 -0.48552752 2.274425
-0.091600999 -0.478845 2.2763
-0.11112 -0.50652999 2.2894001
-0.10447221 -0.50441003 2.2881668
-0.097878158 -0.50319332 2.2850335
-0.096717998 -0.49503499 2.2857001
-0.09592966 -0.48595333 2.2856667
-0.092956997 -0.47646999 2.2864201
-0.14222001 -0.50737 2.2932
-0.12458667 -0.50453734 2.29548
-0.11518534 -0.50389403 2.2947199
-0.10628714 -0.5019486 2.2948284
-0.099414997 -0.50024003 2.2932
-0.11268 -0.49868 2.2969999
-0.10368001 -0.49486887 2.2940443
-0.099414997 -0.49428999 2.2932
-0.10315 -0.48914999 2.2969999
-0.097938336 -0.48650333 2.2957332
-0.093918659 -0.47433999 2.2944667
-0.092357501 -0.46851999 2.2951
-0.13838001 -0.51073998 2.3083999
-0.14054 -0.50511003 2.3046
-0.13437736 -0.50485939 2.3046
-0.1236 -0.50189 2.3008001
-0.13119 -0.49877 2.3083999
-0.12496439 -0.49659437 2.3038876
-0.11564667 -0.49474996 2.3033333
-0.10800222 -0.49438551 2.3016446
-0.11444 -0.4892 2.3083999
-0.10442429 -0.48736715 2.3062286
-0.098633498 -0.48440248 2.3027
-0.095928334 -0.47484663 2.3046
-0.094175197 -0.4664 2.3046
-0.13493429 -0.49824142 2.3139286
-0.1254725 -0.49261498 2.3132498
-0.11635667 -0.49055663 2.3148334
-0.11482 -0.48842999 2.3160999
-0.10312501 -0.48442164 2.3141999
-0.097926497 -0.47722 2.3141999
-0.095605999 -0.46320999 2.3160999
-0.13592599 -0.49728799 2.3239
-0.12486875 -0.49136752 2.3243876
-0.11761 -0.49006 2.3239
-0.12022 -0.48846999 2.3278
-0.11314375 -0.48785251 2.3248751
-0.1058675 -0.48343247 2.3239
-0.10259364 -0.47581366 2.3260274
-0.098281004 -0.47292671 2.3226001
-0.097588658 -0.46542335 2.3252001
-0.096032672 -0.45683002 2.3264999
-0.14178 -0.49631667 2.3381999
-0.134655 -0.493898 2.3352098
-0.13260694 -0.48470542 2.3364999
-0.12426063 -0.48586875 2.3355999
-0.11467786 -0.48324212 2.3342071
-0.10843 -0.48122501 2.3336501
-0.13539 -0.4788 2.3395
-0.11355364 -0.47593632 2.3395002
-0.10748286 -0.47384715 2.3355999
-0.14267001 -0.46182001 2.3395
-0.13054 -0.46182001 2.3395
-0.12083 -0.46182001 2.3395
-0.11443727 -0.46424732 2.3395002
-0.10461944 -0.46535116 2.3356001
-0.09866599 -0.46269 2.3317001
-0.14267001 -0.45818502 2.3395
-0.13054 -0.45818502 2.3395
-0.12083 -0.4594 2.3395
-0.11554 -0.4569709 2.3395002
-0.10474308 -0.45623076 2.3386002
-0.098052502 -0.45431003 2.3362501
-0.11841 -0.44969001 2.3395
-0.09594512 -0.44686875 2.3390126
-0.094145991 -0.43271002 2.3395
-0.094145998 -0.42422 2.3395
-0.094145998 -0.41694 2.3395
-0.141498 -0.492412 2.34428
-0.13810751 -0.49318248 2.344475
-0.14217834 -0.48595834 2.3447998
-0.13828 -0.48528996 2.3474
-0.12595251 -0.48163497 2.344475
-0.14461 -0.47420335 2.3448
-0.13307916 -0.4754875 2.345125
-0.12489002 -0.47526768 2.3460236
-0.11763801 -0.474264 2.3434999
-0.14144333 -0.46514836 2.3460999
-0.13477999 -0.46512374 2.3447187
-0.12501065 -0.46485934 2.3450599
-0.115694 -0.468918 2.3434999
-0.14071 -0.45851001 2.3474
-0.13431583 -0.45488414 2.3454502
-0.12478874 -0.45447809 2.3454499
-0.11344625 -0.45257622 2.3434999
-0.10576 -0.45183855 2.3434999
-0.131466 -0.445856 2.3474
-0.12487751 -0.44507757 2.3471565
-0.1150575 -0.44474879 2.3454499
-0.10531626 -0.44470128 2.3452063
-0.096754372 -0.44294876 2.3439875
-0.14291 -0.43101001 2.3434999
-0.13192715 -0.43455288 2.3457284
-0.12489 -0.43539 2.3474002
-0.11504562 -0.43497694 2.3452063
-0.10529375 -0.43488571 2.3447189
-0.095800079 -0.43493542 2.3434999
-0.087972336 -0.43336168 2.3474
-0.13202143 -0.42582569 2.3474
-0.12489 -0.42565247 2.3474002
-0.115155 -0.42565247 2.3474002
-0.105395 -0.42556304 2.3469129
-0.095966421 -0.42511415 2.344475
-0.087160997 -0.42930001 2.3474
-0.132195 -0.41957 2.3474
-0.12488999 -0.41957 2.3474
-0.11454625 -0.41804624 2.3474
-0.10476232 -0.41657078 2.3474002
-0.096590899 -0.415878 2.34584
-0.13574456 -0.40398818 2.3456273
-0.094384499 -0.40827 2.3454499
-0.13319001 -0.39941999 2.3434999
-0.14176333 -0.48204336 2.3513999
-0.13851 -0.48122999 2.3513999
-0.14206429 -0.47589427 2.3525429
-0.13857 -0.47534248 2.3523998
-0.12632 -0.47635999 2.3513999
-0.14094999 -0.45440999 2.3513999
-0.13688667 -0.45278335 2.3513999
-0.141094 -0.44510999 2.3538003
-0.13655846 -0.44500616 2.3532462
-0.089746997 -0.44222 2.3513999
-0.14119001 -0.43442252 2.3554001
-0.13709778 -0.43501776 2.3549557
-0.089746997 -0.43490499 2.3513999
-0.14143001 -0.42904001 2.3594
-0.13752 -0.42603999 2.3582571
-0.088528 -0.42759001 2.3513999
-0.14143001 -0.41192001 2.3594
-0.13404301 -0.41418201 2.3542001
-0.125195 -0.41448626 2.3531499
-0.11575667 -0.41316333 2.3514001
-0.10681571 -0.41191432 2.3514001
-0.098687328 -0.41133332 2.3513999
-0.14100999 -0.4046025 2.3523998
-0.132438 -0.40598202 2.3562
-0.12505642 -0.40593007 2.3571143
-0.11558188 -0.40523946 2.3561499
-0.10552 -0.40531006 2.3551333
-0.09724544 -0.4055956 2.3558445
-0.14143001 -0.39967999 2.3594
-0.13615334 -0.39855668 2.3527334
-0.11696 -0.39967999 2.3594
-0.10473 -0.39906999 2.3594
-0.094944999 -0.39967999 2.3594
-0.14173001 -0.42382503 2.3643999
-0.13677 -0.42364502 2.3634
-0.14179 -0.41665 2.3653998
-0.13775 -0.41801 2.3634
-0.13209 -0.40105 2.3673999
-0.12603 -0.40147799 2.3641999
-0.11552667 -0.40035999 2.3634
-0.10491 -0.40158498 2.3634
-0.097557001 -0.40158498 2.3634
-0.14191 -0.39614001 2.3673999
-0.13722 -0.39644998 2.3651142
-0.1235 -0.39859 2.3673999
-0.116085 -0.39842001 2.3664
-0.10502125 -0.39680248 2.3659
-0.096032329 -0.39754665 2.3660667
-0.075629003 -0.34213001 2.3673999
-0.075629003 -0.33844501 2.3673999
-0.13277 -0.40064001 2.3796
-0.12885 -0.40118501 2.37555
-0.14248 -0.39607334 2.3768666
-0.13702601 -0.393684 2.3763402
-0.12269 -0.39748999 2.3755
-0.11406626 -0.39625624 2.3755376
-0.10460667 -0.39330781 2.3750777
-0.096825838 -0.39379334 2.3755333
-0.10563 -0.38706499 2.3796
-0.095757999 -0.38706499 2.3796
-0.094245397 -0.37287599 2.3787799
-0.094484247 -0.36470377 2.3785751
-0.094523996 -0.35868999 2.3796
-0.078484997 -0.342655 2.3796
-0.13053 -0.40132999 2.3836999
-0.14177001 -0.39177501 2.3857498
-0.13435 -0.39548498 2.3857498
-0.1244025 -0.3971675 2.3847251
-0.11452667 -0.39330998 2.3850667
-0.10174999 -0.39248666 2.3850665
-0.098393999 -0.39144 2.3836999
-0.14066 -0.38716 2.3878
-0.13652666 -0.38798666 2.3878
-0.10410818 -0.38595819 2.3859363
-0.097626336 -0.384655 2.3850667
-0.10373819 -0.37567997 2.3878
-0.097029723 -0.37679431 2.3848712
-0.098520756 -0.365955 2.386775
-0.09418983 -0.35502413 2.386775
-0.084944993 -0.35187751 2.3878
-0.093611002 -0.34692249 2.3878
-0.082881667 -0.34671667 2.3878
-0.078687504 -0.33858499 2.3857498
-0.14226 -0.390645 2.39395
-0.1341925 -0.39560997 2.39395
-0.12440901 -0.39418501 2.3943601
-0.11484999 -0.39113668 2.3919001
-0.14226 -0.38691998 2.39395
-0.1373 -0.38567999 2.39395
-0.122505 -0.38848999 2.3959999
-0.1148954 -0.38542461 2.3947382
-0.10571201 -0.38250399 2.39272
-0.1049775 -0.37248498 2.392925
-0.10379833 -0.36462665 2.3942916
-0.088964999 -0.36116001 2.3959999
-0.10238199 -0.35669398 2.3959999
-0.096280999 -0.35361502 2.3925834
-0.088964999 -0.35495499 2.3959999
-0.095215462 -0.34395453 2.3941362
-0.085019819 -0.34424454 2.3930182
-0.094761997 -0.33797336 2.3959999
-0.083995335 -0.33880004 2.3959999
-0.078958005 -0.33478498 2.39395
-0.13252498 -0.39368999 2.405
-0.12825666 -0.39293668 2.4029
-0.14345334 -0.38613001 2.4071
-0.13536111 -0.38514888 2.4061668
-0.12542 -0.38550618 2.4023619
-0.11566667 -0.38170001 2.4001
-0.12407583 -0.37624249 2.4064002
-0.11550167 -0.37514222 2.4024336
-0.1091725 -0.3734675 2.40325
-0.12314 -0.36429 2.4085
-0.11541222 -0.36466727 2.4064002
-0.10941 -0.36429 2.4085
-0.12189 -0.35429999 2.4085
-0.11562374 -0.35422251 2.4079752
-0.10567625 -0.35486251 2.401675
-0.12189 -0.34806001 2.4085
-0.11593846 -0.34479311 2.4085002
-0.10438155 -0.34558997 2.403331
-0.099073999 -0.34187999 2.4001
-0.089117996 -0.34312499 2.4001
-0.1164 -0.33707002 2.4085
-0.10343727 -0.33558458 2.4069729
-0.095767699 -0.33483574 2.4019001
-0.085294403 -0.33453 2.4045801
-0.079163 -0.33192 2.4001
-0.14428668 -0.32539332 2.4071
-0.094591208 -0.3255153 2.4043002
-0.084931806 -0.32708001 2.4085
-0.079231501 -0.32846999 2.4022
-0.094047815 -0.31509364 2.4046819
-0.093051992 -0.30533001 2.4006999
-0.089427002 -0.30309999 2.4085
-0.092964403 -0.294945 2.4030402
-0.092949711 -0.28476572 2.4072998
-0.14349499 -0.38277 2.4147
-0.13507 -0.38296667 2.4132998
-0.12961 -0.38244 2.4126
-0.13474999 -0.37530836 2.4150498
-0.12760334 -0.37431502 2.4139998
-0.13485 -0.36681333 2.4168
-0.126855 -0.36445624 2.4136498
-0.13485 -0.35804 2.4168
-0.126656 -0.355542 2.4134398
-0.1096 -0.35366666 2.4126
-0.12489726 -0.34473366 2.4137452
-0.1146 -0.34282669 2.4126
-0.1096 -0.34490997 2.4126
-0.14474499 -0.3351925 2.4147
-0.13736001 -0.33548501 2.4168
-0.12598437 -0.33522752 2.4149625
-0.11552817 -0.33370271 2.4129815
-0.10863715 -0.33469862 2.4149997
-0.089582004 -0.33239999 2.4126
-0.13711999 -0.32489499 2.4126
-0.12232 -0.32796499 2.4168
-0.11499167 -0.32603917 2.4164498
-0.10465334 -0.32508332 2.4139998
-0.099590003 -0.32364333 2.4126
-0.089582004 -0.32489499 2.4126
-0.1373 -0.31529748 2.41575
-0.10394167 -0.31752166 2.4167998
-0.099193409 -0.31446397 2.4151199
-0.089236811 -0.31468397 2.4168
-0.13736001 -0.30917001 2.4168
-0.098234423 -0.30564427 2.4143999
-0.088994503 -0.306265 2.41365
-0.097172499 -0.29512748 2.4147
-0.096722804 -0.28450999 2.4159598
-0.093416259 -0.27509499 2.4146998
-0.14538001 -0.38067001 2.4252999
-0.142336 -0.37682405 2.42484
-0.13006 -0.37246999 2.421
-0.14185001 -0.36370003 2.4295003
-0.13416727 -0.36630914 2.4209998
-0.14310999 -0.35782 2.4295001
-0.13418615 -0.35508844 2.4223154
-0.14298667 -0.34282336 2.4273834
-0.13403465 -0.34618399 2.42328
-0.14166749 -0.33428499 2.4263501
-0.13388249 -0.33621126 2.422075
-0.14172874 -0.32436377 2.4274004
-0.13264732 -0.32495672 2.4224334
-0.12423002 -0.32422942 2.4225118
-0.11751 -0.32225999 2.421
-0.10998 -0.32602501 2.421
-0.141094 -0.314318 2.4295001
-0.13398501 -0.31551501 2.4295003
-0.12404001 -0.31727001 2.4295003
-0.1141521 -0.31503895 2.4255002
-0.10657625 -0.31423753 2.422075
-0.13759001 -0.30720001 2.421
-0.11287999 -0.30700999 2.4295003
-0.10507385 -0.30501229 2.4236383
-0.099936999 -0.30217999 2.421
-0.10497769 -0.29446384 2.425931
-0.099936999 -0.29590249 2.421
-0.10293727 -0.28372276 2.4272094
-0.099936999 -0.28836501 2.421
-0.10113 -0.27719998 2.4295001
-0.097459994 -0.274654 2.4218602
-0.094562694 -0.266188 2.42484
-0.14210001 -0.37189999 2.4338
-0.14210001 -0.36938 2.4338
-0.14304751 -0.35392126 2.4338
-0.143012 -0.348548 2.4363198
-0.14336 -0.31554332 2.4338
-0.13137999 -0.31323001 2.4338
-0.12457778 -0.31301999 2.4338
-0.14083999 -0.30881 2.4338
-0.13459 -0.30831501 2.43485
-0.12374166 -0.30832997 2.4366
-0.11514001 -0.303617 2.4346399
-0.11390287 -0.29555002 2.4359
-0.11075 -0.28913 2.438
-0.108125 -0.28508249 2.4359
-0.10342429 -0.2747657 2.4356
-0.10064 -0.26890001 2.438
-0.096088246 -0.26160499 2.43485
-0.094318002 -0.25878999 2.438
-0.14387 -0.30989999 2.4423001
-0.13382 -0.30754331 2.4437335
-0.12432501 -0.30439627 2.4439125
-0.12171401 -0.29653201 2.44488
-0.11860999 -0.29234001 2.4437332
-0.11359899 -0.28613904 2.44488
-0.11114 -0.28 2.4466
-0.10693 -0.27504399 2.4431601
-0.10311428 -0.26681572 2.4453714
-0.096508995 -0.2576825 2.4455249
-0.14335999 -0.30899501 2.45525
-0.13568166 -0.3038125 2.45455
-0.12811401 -0.302858 2.4509001
-0.13453875 -0.29709625 2.4569001
-0.12652417 -0.29417917 2.4538167
-0.12545802 -0.28546605 2.45874
-0.11756857 -0.28317574 2.4521573
-0.12533002 -0.27595499 2.4596002
-0.11546749 -0.27489185 2.4577124
-0.10889 -0.271835 2.4531002
-0.12499001 -0.26541501 2.4596002
-0.11598 -0.26788002 2.4596002
-0.10589699 -0.26358199 2.4544001
-0.12607375 -0.25566125 2.4596002
-0.10432222 -0.25559443 2.4586444
-0.096661247 -0.25352377 2.4574378
-0.10663 -0.24833 2.4596
-0.1427775 -0.30410248 2.4672251
-0.14015499 -0.29629499 2.46615
-0.136042 -0.293942 2.4657199
-0.13373373 -0.28600249 2.4656124
-0.12981001 -0.28198001 2.464
-0.13388 -0.27609 2.4683001
-0.12623399 -0.27508402 2.4640002
-0.13384999 -0.26579002 2.4677625
-0.12725668 -0.26452336 2.464
-0.115505 -0.26358598 2.4640002
-0.10937 -0.26154 2.464
-0.143096 -0.25484198 2.4683001
-0.13488363 -0.25517726 2.4675183
-0.12566125 -0.25419626 2.464
-0.11588875 -0.25543875 2.4666877
-0.10690142 -0.25407144 2.465843
-0.094043002 -0.25132 2.464
-0.14027999 -0.24921 2.4683001
-0.13186857 -0.2470157 2.4683001
-0.12457273 -0.24547906 2.4659545
-0.11659167 -0.24639998 2.4679418
-0.10492538 -0.24520001 2.4656539
-0.09700413 -0.24675 2.46615
-0.10573 -0.23513 2.4683001
-0.10701 -0.22872999 2.4683001
-0.092930496 -0.22105999 2.4683001
-0.092930496 -0.21466 2.4683001
-0.151665 -0.20423999 2.46615
-0.14796001 -0.20314001 2.4683001
-0.094209999 -0.20826 2.4683001
-0.14579 -0.30505502 2.4749
-0.14326666 -0.29573166 2.4756334
-0.13797 -0.29067999 2.4727001
-0.13815001 -0.28464752 2.4759998
-0.14268401 -0.27139002 2.4744601
-0.13815001 -0.2743825 2.4759998
-0.14309667 -0.26503667 2.4727001
-0.13797 -0.26503667 2.4727001
-0.14181501 -0.25990999 2.4727001
-0.13797 -0.25990999 2.4727001
-0.14280286 -0.24684858 2.4739571
-0.13568889 -0.24452554 2.4727001
-0.12771 -0.24196 2.4727001
-0.1142525 -0.24260251 2.4727001
-0.10976 -0.24324501 2.4727001
-0.096300997 -0.2426025 2.4727001
-0.14078 -0.23982 2.4770999
-0.13411143 -0.23621857 2.475843
-0.12359429 -0.23628139 2.474586
-0.114995 -0.23575999 2.4749
-0.10591499 -0.23555 2.4727001
-0.096666619 -0.23554617 2.4757462
-0.13628501 -0.22762251 2.4770999
-0.12023 -0.225695 2.4770999
-0.11509667 -0.22569497 2.4771001
-0.10588266 -0.22514534 2.4738731
-0.096088849 -0.22598788 2.4742718
-0.12023 -0.21670668 2.4770999
-0.11473 -0.21743999 2.4771001
-0.10576066 -0.215498 2.4750469
-0.09811715 -0.21575285 2.474586
-0.15207 -0.20734501 2.4727001
-0.14849 -0.20643 2.4770999
-0.10481999 -0.20900001 2.4770999
-0.094409458 -0.20449729 2.4735003
-0.09449067 -0.19475584 2.4756336
-0.094545998 -0.18844999 2.4770999
-0.14502251 -0.29326499 2.4837999
-0.14371249 -0.28549668 2.4834332
-0.14232001 -0.27756497 2.4816
-0.14520399 -0.24342799 2.48248
-0.14116 -0.236605 2.4837999
-0.13589001 -0.23381999 2.4816
-0.12687999 -0.23253 2.4816
-0.092142001 -0.236395 2.4816
-0.13376644 -0.22477145 2.4831715
-0.12587573 -0.22535142 2.4834857
-0.15404001 -0.21342501 2.4837999
-0.13487555 -0.21559112 2.4840443
-0.12479874 -0.21512999 2.4849
-0.11486999 -0.21280666 2.4816
-0.099862002 -0.21195 2.4816
-0.15132999 -0.20937 2.4816
-0.138585 -0.2056925 2.4837999
-0.121092 -0.20650399 2.4842401
-0.1141025 -0.20566998 2.4835253
-0.10501 -0.20422666 2.4816
-0.099862002 -0.20551249 2.4816
-0.12066 -0.19944 2.4860001
-0.11421999 -0.19815001 2.4860001
-0.10384142 -0.19544284 2.4844284
-0.099862002 -0.19908001 2.4816
-0.10262001 -0.18911999 2.4860001
-0.095057294 -0.185091 2.4837999
-0.095529497 -0.17365749 2.4860001
-0.10004 -0.16592334 2.4860001
-0.095349096 -0.164547 2.4846799
-0.14411999 -0.24111 2.4905
-0.144278 -0.235688 2.4931598
-0.14179333 -0.22601999 2.4949334
-0.13637 -0.22045 2.4905
-0.15279 -0.2163225 2.494925
-0.14929 -0.21012001 2.4905
-0.13493143 -0.21276 2.4911284
-0.12655799 -0.213222 2.4905
-0.13409498 -0.20412169 2.496033
-0.12617584 -0.20387834 2.4930665
-0.13641751 -0.19676998 2.4971626
-0.125075 -0.19512331 2.4967914
-0.1144225 -0.19334 2.4904997
-0.10797 -0.19205 2.4905
-0.121205 -0.18867499 2.4971499
-0.114195 -0.187866 2.4966998
-0.10447924 -0.18484768 2.4925382
-0.090912007 -0.18290667 2.4949334
-0.089890003 -0.18688001 2.4905
-0.10298833 -0.17557418 2.4949167
-0.093877807 -0.176516 2.4935997
-0.10424401 -0.16490801 2.49404
-0.090912007 -0.16522665 2.4949331
-0.087621003 -0.16423 2.4993999
-0.10118251 -0.1570275 2.498275
-0.094653457 -0.1556146 2.4956076
-0.14680667 -0.23491001 2.5069001
-0.14502999 -0.22575 2.50615
-0.15008999 -0.21386001 2.5039001
-0.14256001 -0.21944 2.5084
-0.13551778 -0.19269779 2.5064001
-0.12672667 -0.19049001 2.5039001
-0.12473999 -0.18646599 2.5056999
-0.11527889 -0.18255556 2.5059004
-0.10855 -0.18009999 2.5039001
-0.112 -0.17392249 2.5084
-0.10854999 -0.17490999 2.5039001
-0.090375997 -0.17361 2.5039001
-0.087779008 -0.17490999 2.5039001
-0.12175 -0.16222 2.5084
-0.11211667 -0.16597001 2.50615
-0.10861667 -0.16548666 2.5053999
-0.087779 -0.16971999 2.5039001
-0.10395201 -0.155808 2.5056999
-0.10076 -0.14894 2.5039001
-0.14568999 -0.2359 2.5174999
-0.15064 -0.22245 2.513
-0.14803 -0.22766 2.513
-0.15091 -0.21763 2.5174999
-0.14295 -0.21612501 2.51525
-0.14021 -0.18856999 2.513
-0.13517 -0.18879665 2.516
-0.125955 -0.18433499 2.5144999
-0.11937 -0.18075 2.513
-0.12219 -0.174555 2.5174999
-0.11703818 -0.17465273 2.5138185
-0.123385 -0.16527 2.51525
-0.11736699 -0.16341099 2.5148001
-0.123275 -0.15860499 2.513
-0.11484201 -0.15805399 2.5166001
-0.1070375 -0.15606999 2.5141249
-0.14595 -0.23241 2.5221
-0.15118 -0.22064 2.5221
-0.14722714 -0.22423144 2.5247285
-0.14670876 -0.21424876 2.5238252
-0.1436 -0.20794 2.5267
-0.14098001 -0.18697999 2.5267
-0.13234501 -0.184845 2.5244
-0.12634 -0.18141 2.5221
-0.12648374 -0.17506999 2.5249748
-0.12693001 -0.16766334 2.5251667
-0.115875 -0.15526 2.5221
-0.10766 -0.15273333 2.5236332
-0.14647999 -0.212255 2.5313001
-0.14523749 -0.2044725 2.5324502
-0.14411999 -0.19555001 2.5359001
-0.13539 -0.1847775 2.5324502
-0.1309125 -0.17574501 2.53475
-0.13097 -0.167935 2.5359001
-0.10974 -0.1532 2.5313001
-0.14842142 -0.20493571 2.5452001
-0.15019999 -0.19530499 2.5499001
-0.14739799 -0.19588399 2.5470803
-0.14297999 -0.18582334 2.5467665
-0.13757168 -0.18213332 2.5444167
-0.13409001 -0.17514999 2.5452001
-0.13497333 -0.16811334 2.5452001
-0.15075999 -0.19204 2.5592999
-0.1481 -0.19204 2.5592999
-0.14438666 -0.18385333 2.5561666
-0.137918 -0.17546001 2.55742
-0.14865001 -0.19009 2.5687001
-0.15104 -0.18974 2.5639999
-0.14572001 -0.18176 2.5639999
-0.14234833 -0.17621666 2.5671332
-0.14040001 -0.16847 2.5639999
-0.15168667 -0.18521333 2.5750999
-0.14902 -0.18521333 2.5750999
-0.145354 -0.17409 2.5763803
-0.15244 -0.18076999 2.5878999
-0.14948 -0.18043999 2.5829999
-0.15004 -0.177075 2.5927
