# .PCD v0.7 - Point Cloud Data file format
VERSION 0.7
FIELDS x y z
SIZE 4 4 4
TYPE F F F
COUNT 1 1 1
WIDTH 187
HEIGHT 1
VIEWPOINT 0 0 0 1 0 0 0
POINTS 187
DATA ascii
-0.42886999 -0.13168 2.3796
-0.43875 -0.12673999 2.3796
-0.42886999 -0.12921 2.3796
-0.43035001 -0.14203 2.3878
-0.44272664 -0.13213 2.3878
-0.43364832 -0.13460667 2.3878
-0.42530462 -0.13566153 2.3862231
-0.41336998 -0.1339 2.3878
-0.45016 -0.12718 2.3878
-0.44482335 -0.128305 2.3857501
-0.43558145 -0.1284657 2.3854568
-0.44425666 -0.14128 2.3959999
-0.43546748 -0.14373374 2.3954873
-0.42565751 -0.14398499 2.3944626
-0.415685 -0.14252 2.3959999
-0.40946999 -0.14004 2.3959999
-0.45144999 -0.13499333 2.3946333
-0.44531447 -0.13571778 2.3928108
-0.43687668 -0.13732 2.3919001
-0.42447665 -0.13897334 2.3919001
-0.41589999 -0.13824999 2.3919001
-0.40734401 -0.136016 2.39518
-0.45093 -0.12988 2.3919001
-0.45280999 -0.21444 2.4085
-0.44282001 -0.21194501 2.4085
-0.43831 -0.21158001 2.4043
-0.44269168 -0.20564167 2.4078
-0.43579444 -0.20490776 2.4057
-0.44157001 -0.16075 2.4085
-0.43408 -0.16075 2.4085
-0.42409 -0.16075 2.4085
-0.4131 -0.162744 2.4085
-0.45265141 -0.15385571 2.4066999
-0.44483751 -0.15433939 2.4058752
-0.43448064 -0.15420625 2.4037752
-0.42492247 -0.154355 2.4061377
-0.41516799 -0.154218 2.4079401
-0.40827 -0.15325667 2.4085
-0.45230398 -0.144862 2.4017799
-0.44601697 -0.14550899 2.4001002
-0.43673 -0.14692001 2.4001
-0.42398834 -0.14696167 2.4008
-0.41381666 -0.1462011 2.4019668
-0.40523928 -0.14392713 2.4046001
-0.39910999 -0.14326334 2.4085
-0.40280831 -0.13644667 2.4057
-0.39910999 -0.13577335 2.4085
-0.36789501 -0.12703 2.4085
-0.45253748 -0.21177749 2.41365
-0.44869336 -0.21297665 2.4154
-0.45300001 -0.20488003 2.4134398
-0.44722247 -0.20396 2.4136498
-0.43513197 -0.20169799 2.4142799
-0.45383501 -0.19717 2.4160998
-0.44436002 -0.1989 2.4168
-0.43809 -0.1989 2.4168
-0.45563999 -0.18136001 2.4168
-0.45396665 -0.174255 2.4167998
-0.4230575 -0.17195749 2.4168
-0.41303334 -0.172585 2.4167998
-0.40634668 -0.17216666 2.4168
-0.45339504 -0.165482 2.4155397
-0.44545856 -0.16494501 2.4149997
-0.4356291 -0.16388817 2.4145088
-0.42554832 -0.16573417 2.4143498
-0.41696399 -0.16533801 2.4134398
-0.40731001 -0.16478001 2.4125998
-0.45234001 -0.15852 2.4126
-0.41732001 -0.15852 2.4126
-0.40440175 -0.15511766 2.4145765
-0.398 -0.15128 2.4168
-0.36542001 -0.15128 2.4168
-0.35399666 -0.15378666 2.4167998
-0.34599501 -0.15315999 2.4168
-0.33785 -0.15378666 2.4168
-0.40231001 -0.14726999 2.4126
-0.39468938 -0.14495438 2.41575
-0.38345799 -0.143262 2.4168
-0.37418801 -0.143262 2.4167998
-0.36374196 -0.14470001 2.4156799
-0.35371378 -0.14484437 2.4139125
-0.34494832 -0.1446 2.4167998
-0.336878 -0.144564 2.41344
-0.39384666 -0.135194 2.4159598
-0.38546333 -0.13791333 2.4168
-0.37143201 -0.13574201 2.4168
-0.36398801 -0.13458401 2.414
-0.35428765 -0.13512765 2.4153178
-0.34448001 -0.13601418 2.4164498
-0.33726001 -0.13726 2.4126
-0.36728001 -0.1285 2.4126
-0.35288 -0.12873 2.4168
-0.43133 -0.20175999 2.421
-0.45293573 -0.19333716 2.4234428
-0.44547912 -0.19507727 2.4260366
-0.43594998 -0.19851799 2.4244399
-0.45362151 -0.18638767 2.4246233
-0.4452064 -0.18473713 2.4283004
-0.43367001 -0.18231 2.4295001
-0.42383376 -0.18348999 2.4284501
-0.41519165 -0.18361335 2.4245667
-0.45321497 -0.17628334 2.4217167
-0.44495222 -0.17588057 2.4238558
-0.43522996 -0.175744 2.4269669
-0.42543185 -0.17630546 2.4225638
-0.41538179 -0.17722 2.4225543
-0.40441102 -0.17494801 2.4252801
-0.39475769 -0.17492692 2.4265847
-0.37992999 -0.17223001 2.4295001
-0.44639 -0.16912 2.421
-0.43509501 -0.16912 2.421
-0.40245503 -0.165355 2.4209998
-0.39462599 -0.165756 2.4269805
-0.38413 -0.16299 2.4295001
-0.37677667 -0.1643589 2.4290335
-0.36585671 -0.16367334 2.4271557
-0.35614219 -0.16413888 2.4257443
-0.34625503 -0.16359501 2.4259832
-0.33903 -0.16187 2.4252999
-0.39444706 -0.15602292 2.4240177
-0.3854323 -0.15505001 2.4275618
-0.37561876 -0.15563314 2.4260814
-0.36496735 -0.15567398 2.4227202
-0.35493428 -0.15692858 2.4209998
-0.34413669 -0.155965 2.4213581
-0.33844 -0.15908 2.421
-0.39116001 -0.14903 2.421
-0.38534909 -0.14611091 2.4217818
-0.37483498 -0.14819331 2.4209998
-0.36855999 -0.14903 2.421
-0.34220499 -0.14652002 2.421
-0.38465101 -0.13556999 2.4227099
-0.37590602 -0.13524899 2.4214299
-0.34429666 -0.13229667 2.421
-0.37358001 -0.12895 2.421
-0.44384202 -0.19127399 2.4346399
-0.43691427 -0.19507858 2.4361999
-0.44115999 -0.18767001 2.4338
-0.43577129 -0.18590251 2.435375
-0.42096999 -0.18767001 2.4338
-0.41159999 -0.18295 2.438
-0.40606332 -0.18020666 2.4352
-0.39638001 -0.18319599 2.4346399
-0.40077999 -0.17758 2.4338
-0.39069 -0.17631501 2.4338
-0.38512307 -0.17400846 2.4354153
-0.37547749 -0.17169875 2.435375
-0.36593249 -0.170865 2.43695
-0.357245 -0.17157 2.438
-0.34779 -0.17001 2.4338
-0.38606 -0.16579999 2.4338
-0.37504202 -0.166976 2.4338
-0.36292669 -0.16748001 2.4338
-0.35257399 -0.166592 2.4354799
-0.341775 -0.163845 2.4359
-0.38564 -0.15990999 2.4338
-0.43676746 -0.192305 2.4444499
-0.41051 -0.18358999 2.4466
-0.40219 -0.18074 2.4423001
-0.39397666 -0.18337333 2.4437332
-0.383535 -0.17836 2.4444499
-0.37510401 -0.17630398 2.44402
-0.36579001 -0.172025 2.4444499
-0.35644498 -0.174005 2.4455249
-0.34393999 -0.16553999 2.4423001
-0.4060525 -0.18479501 2.454175
-0.3930425 -0.18432501 2.4563498
-0.38489002 -0.18153 2.4531002
-0.37569404 -0.182394 2.45788
-0.37216997 -0.17772001 2.4531002
-0.36498997 -0.17603199 2.4544001
-0.37832001 -0.19034 2.4683001
-0.41086999 -0.18745001 2.464
-0.40904 -0.18777999 2.4683001
-0.39111999 -0.18522 2.4683001
-0.38438001 -0.18633501 2.46615
-0.37431252 -0.1851375 2.4672251
-0.36743 -0.18234 2.464
-0.3682833 -0.17893 2.464
-0.38190001 -0.20496 2.4749
-0.37821752 -0.1935025 2.4759998
-0.39182001 -0.18810999 2.4727001
-0.37386668 -0.18725665 2.4727001
-0.38163501 -0.20164999 2.4816
-0.37716001 -0.20201001 2.4860001
-0.38034999 -0.19908001 2.4816
-0.37714329 -0.19834334 2.4830666
