# .PCD v0.7 - Point Cloud Data file format
VERSION 0.7
FIELDS x y z
SIZE 4 4 4
TYPE F F F
COUNT 1 1 1
WIDTH 1474
HEIGHT 1
VIEWPOINT 0 0 0 0 1 0 0
POINTS 1474
DATA ascii
0.0084876996 0.0152598 0.75140095
0.014518847 0.015333785 0.75299859
0.020637 0.017835001 0.75980002
0.016411141 0.025070468 0.75542635
0.020931602 0.028993402 0.75905401
0.096246697 0.027033037 0.75681669
0.1007425 0.02895825 0.75199246
0.016312109 0.031582497 0.75219923
0.020928167 0.031075001 0.75608331
0.094658852 0.03338813 0.75423741
0.10121699 0.032340996 0.75089604
0.011045001 0.041482668 0.75050336
0.093464337 0.040524334 0.75199002
0.10385417 0.042326838 0.75053835
0.12769499 0.049946502 0.75690496
0.12805271 0.054253664 0.75276786
0.13255525 0.056304347 0.75517786
0.013443172 0.06810604 0.75570107
0.098334618 0.062967248 0.75072122
0.10225064 0.061697878 0.75125504
0.11787027 0.062664613 0.7529856
0.12506381 0.065023877 0.75327456
0.13347904 0.06517493 0.75598305
0.015295852 0.074096441 0.75354594
0.12627396 0.072504513 0.75617725
0.13298716 0.072948202 0.7587201
0.0150315 0.080773503 0.75525999
0.021235714 0.088971719 0.75315714
0.086153001 0.089610994 0.75057
0.02489735 0.095906451 0.75292283
0.030503999 0.098950997 0.75057
0.079531625 0.097409375 0.75143123
0.083051614 0.09483733 0.75328529
0.027350342 0.10401163 0.75679624
0.034389168 0.10622019 0.7528578
0.041148167 0.10896 0.750705
0.068931833 0.1086 0.75090837
0.075656697 0.10555173 0.75200111
0.082419515 0.10284572 0.75721455
0.029271999 0.111075 0.75897503
0.035548363 0.11387604 0.75641459
0.04457105 0.1154759 0.75372934
0.054973997 0.11634925 0.75305641
0.065013245 0.11549832 0.75416017
0.072386712 0.11321446 0.75717276
0.019871 0.019432001 0.76063001
0.024475809 0.018332947 0.76643896
0.087082922 0.018031185 0.76909971
0.091692224 0.018212076 0.7668699
0.019528247 0.023377188 0.7607125
0.02450257 0.024586473 0.76544398
0.087102927 0.02490589 0.76749855
0.092594579 0.02395151 0.76220477
0.025193645 0.031691786 0.76829565
0.088209249 0.033854023 0.76716125
0.09019234 0.031785499 0.76056331
0.096625797 0.068403609 0.76761198
0.13774857 0.068905495 0.76072282
0.096967399 0.07132341 0.76905406
0.12726176 0.077908292 0.76192534
0.13436694 0.076190464 0.7610361
0.12736647 0.083377711 0.76591802
0.13345769 0.085273676 0.76538241
0.020799249 0.098981872 0.765885
0.12938499 0.0990225 0.769265
0.13302301 0.094197601 0.76920897
0.017551031 0.10618194 0.7687701
0.022598056 0.10583048 0.76392221
0.079508997 0.10947 0.76146501
0.085989721 0.10673264 0.76413983
0.090020001 0.10707 0.76692998
0.1292 0.10008 0.76819998
0.13079667 0.10007999 0.76819998
0.038362201 0.0087161399 0.77570897
0.042048272 0.008919592 0.77556902
0.028402405 0.016343217 0.77210253
0.035403807 0.01537455 0.7749458
0.044022806 0.01513662 0.77803773
0.05861577 0.013450078 0.77967304
0.066259451 0.014942682 0.77867621
0.074930191 0.015287925 0.77567393
0.083276801 0.015284535 0.77213687
0.029196609 0.026179567 0.77144873
0.034708969 0.024664385 0.77608353
0.041838501 0.021586357 0.77943718
0.069508001 0.021691801 0.77949399
0.075688191 0.024570158 0.77663666
0.082044579 0.025203742 0.77238166
0.027269347 0.035376117 0.77435738
0.0316098 0.032840159 0.77855241
0.07836362 0.031605475 0.77830571
0.08381062 0.035019316 0.77483851
0.0261392 0.041181304 0.77814198
0.084407441 0.042203251 0.77742988
0.095974334 0.0683605 0.77434665
0.09659557 0.074874356 0.77584749
0.12466 0.079230003 0.77463001
0.097344972 0.085023925 0.77746415
0.12590522 0.087106436 0.77339429
0.018046571 0.099492438 0.77426004
0.097008325 0.095026992 0.77788728
0.10324896 0.096831404 0.77947587
0.11458357 0.099055395 0.77870572
0.12547794 0.095147088 0.77379429
0.13120262 0.09465991 0.7705918
0.01691075 0.1027625 0.77186
0.12341817 0.10286519 0.77576882
0.048571944 0.018475126 0.78061002
0.054614067 0.01645649 0.78081465
0.062582821 0.017896639 0.78076667
0.038841002 0.028194942 0.7810306
0.045538325 0.025656419 0.78254586
0.055029701 0.025317065 0.78395337
0.064896643 0.02535262 0.78313357
0.071816273 0.028133346 0.78154922
0.029284 0.039352 0.78027999
0.035704304 0.035481017 0.7832827
0.044225935 0.033928156 0.78711301
0.055090949 0.032181416 0.78849524
0.065894157 0.033737347 0.78815031
0.074468866 0.035466503 0.78424537
0.080713779 0.037959222 0.78120887
0.028618818 0.043193772 0.7831673
0.033848099 0.043081012 0.7871151
0.040277999 0.040640999 0.78959
0.077272169 0.0433699 0.78739572
0.081312709 0.044744425 0.78324449
0.079579003 0.050466001 0.78959
0.09566354 0.067414001 0.78309071
0.094521128 0.07545846 0.78260565
0.094590679 0.08407069 0.78251356
0.094823003 0.090327002 0.78027999
0.1053563 0.096422382 0.78037763
0.11183 0.097824998 0.78039002
0.046241123 0.03812027 0.79114848
0.054936569 0.036700785 0.79158139
0.063855149 0.037888985 0.79111689
0.036286555 0.047348596 0.79177153
0.045247033 0.044954214 0.79541862
0.055044696 0.044423431 0.79708403
0.064998724 0.044803068 0.79622364
0.073481098 0.046268549 0.79261428
0.037386999 0.051903695 0.79449195
0.042884823 0.052781202 0.79847574
0.068091057 0.053106658 0.79868102
0.072956972 0.052631579 0.79665476
0.056414504 0.049314599 0.80014193
0.062380999 0.049474999 0.80005002
0.046930037 0.054502379 0.80117464
0.054668542 0.053968694 0.8027336
0.063530318 0.054215293 0.80193079
0.027568001 -0.070903607 1.2088599
0.034451529 -0.072264701 1.2086823
0.045420922 -0.072785318 1.2076241
0.054555316 -0.071004003 1.2041501
0.064954072 -0.070909008 1.20324
0.074839748 -0.070997812 1.2027125
0.080298997 -0.071131498 1.2063
0.026579 -0.069435999 1.2095
0.032205626 -0.066108495 1.208825
0.055873666 -0.068745226 1.2071444
0.065013111 -0.067019701 1.2050459
0.074170358 -0.068713278 1.2027909
0.080298997 -0.069255002 1.2063
0.017919334 -0.071164995 1.2175667
0.020989999 -0.070875004 1.2126501
0.036644664 -0.07096117 1.2104999
0.042502832 -0.070961162 1.2104999
0.019138001 -0.069738999 1.2148
0.024529332 -0.069277883 1.2115666
0.03543045 -0.067759484 1.2118779
0.043762129 -0.068088375 1.2126782
0.016705999 -0.072640002 1.2212
-0.1901 -0.41049999 1.8554
-0.19035 -0.40911999 1.8579
-0.20879167 -0.35326335 1.8562332
-0.2084125 -0.34610501 1.8557125
-0.19267 -0.41091001 1.86155
-0.191558 -0.40662599 1.8657999
-0.210848 -0.36435002 1.8652999
-0.20881 -0.36096999 1.8678
-0.21299288 -0.35446998 1.8656571
-0.20870668 -0.35774997 1.8611332
-0.21143001 -0.34500501 1.8653001
-0.20893499 -0.34215 1.8602999
-0.2144009 -0.41311273 1.8751727
-0.2052723 -0.41395074 1.8763613
-0.19714749 -0.41424 1.87665
-0.1935475 -0.40604752 1.8747751
-0.17682999 -0.39407 1.8779
-0.21773 -0.38238999 1.8779
-0.21503055 -0.37485263 1.8740841
-0.20975 -0.37426665 1.8762335
-0.19129571 -0.37599283 1.8779
-0.21527253 -0.36562252 1.873525
-0.20930001 -0.36667001 1.872275
-0.216364 -0.35844198 1.8729
-0.21131 -0.34057 1.8729
-0.22026999 -0.41075999 1.883
-0.21638444 -0.41190994 1.8813335
-0.20453601 -0.41151601 1.882
-0.1978825 -0.41188002 1.8836499
-0.22075 -0.40578398 1.8871599
-0.21516123 -0.40647998 1.8864125
-0.20468535 -0.40705469 1.8857734
-0.19617091 -0.40482184 1.8851453
-0.21876 -0.39496499 1.8868999
-0.1923418 -0.39556181 1.884191
-0.184598 -0.39199698 1.8876801
-0.17951 -0.39372334 1.8856
-0.22057 -0.38296998 1.8856001
-0.21491125 -0.3843725 1.885275
-0.20515637 -0.38244274 1.8860726
-0.19415225 -0.38434049 1.884322
-0.18516411 -0.38504502 1.8861908
-0.17930333 -0.385185 1.8868999
-0.22038999 -0.37581801 1.8840399
-0.21161668 -0.37853003 1.8813334
-0.20429423 -0.37467921 1.8832114
-0.19615701 -0.37405398 1.8830149
-0.18538155 -0.37486076 1.8826503
-0.17892401 -0.37689 1.8835399
-0.22026999 -0.36878502 1.883
-0.20487118 -0.36489847 1.8851038
-0.19526801 -0.36539122 1.8867438
-0.18663949 -0.36537263 1.8869685
-0.20725332 -0.35795334 1.8860334
-0.17771 -0.35689667 1.8873334
-0.22116999 -0.40068001 1.8907
-0.21458079 -0.40377924 1.8910998
-0.20580201 -0.40314138 1.8912197
-0.19863428 -0.40351287 1.8921858
-0.22192501 -0.39908999 1.8972
-0.21560499 -0.39588833 1.8954667
-0.20515521 -0.39580825 1.8947698
-0.19786844 -0.39509928 1.8928999
-0.18718666 -0.39479002 1.8907
-0.214066 -0.38797599 1.89382
-0.20570898 -0.38796201 1.8927799
-0.19814 -0.388338 1.8917401
-0.18196 -0.37225002 1.8907
-0.18000001 -0.37225002 1.8907
-0.19273999 -0.36146 1.8907
-0.18346713 -0.36447856 1.8918144
-0.18000001 -0.36538601 1.8907
-0.20530297 -0.35603237 1.8943706
-0.19472294 -0.35788178 1.8937587
-0.18517423 -0.35624653 1.8951001
-0.17844333 -0.35245666 1.8950334
-0.20969398 -0.346248 1.8933001
-0.21474832 -0.39591333 1.9047832
-0.21479 -0.38960001 1.9037
-0.20429854 -0.35297933 1.9031428
-0.19505833 -0.35270667 1.9016778
-0.18172 -0.35276172 1.9019667
-0.20435433 -0.3449465 1.9040395
-0.1950269 -0.34439117 1.9035004
-0.18512999 -0.34467345 1.9018174
-0.17905168 -0.34479165 1.9015332
-0.20385751 -0.33848 1.9076
-0.19622251 -0.33829123 1.9079249
-0.18476999 -0.33851001 1.9081572
-0.1795 -0.33873999 1.9062999
-0.21016499 -0.34136999 1.9154999
-0.20972998 -0.34562001 1.9115
-0.21182667 -0.3369433 1.9185333
-0.20439477 -0.33467087 1.9164479
-0.19446349 -0.33427802 1.9163948
-0.18636799 -0.33488798 1.9159133
-0.18000001 -0.33769 1.9115
-0.20363501 -0.32914001 1.9194
-0.19765499 -0.32914001 1.9194
-0.18471999 -0.32914001 1.9194
-0.21182857 -0.33342716 1.9228715
-0.2089 -0.33159 1.9220999
-0.19295 -0.33258498 1.9220999
-0.18352501 -0.33462998 1.9243168
-0.21169598 -0.327434 1.92582
-0.20509236 -0.32596469 1.9249237
-0.19548 -0.32698599 1.9247668
-0.187628 -0.32884997 1.9247599
-0.18256499 -0.33304751 1.933475
-0.21271144 -0.32308856 1.9308714
-0.20601249 -0.32220998 1.9300997
-0.19398999 -0.32311884 1.9324824
-0.18730143 -0.32681713 1.9343427
-0.2119925 -0.31509745 1.9333063
-0.20436656 -0.31495306 1.9352212
-0.19615823 -0.31598467 1.936453
-0.21242374 -0.3065325 1.9338126
-0.20364545 -0.30632451 1.9377091
-0.19791 -0.30756 1.9382
-0.21235999 -0.29978001 1.9355
-0.2026 -0.296175 1.9382
-0.2031025 -0.28210998 1.9382
-0.197575 -0.28211001 1.9382
-0.19724 -0.26469001 1.9382
-0.18302 -0.33127001 1.9436001
-0.18714499 -0.32387751 1.9446374
-0.19285832 -0.3141908 1.942925
-0.18883 -0.31857333 1.9481667
-0.21115749 -0.30395001 1.9429251
-0.20551267 -0.30354398 1.9416202
-0.19466092 -0.30462727 1.9437226
-0.18959002 -0.30794001 1.9491
-0.21122999 -0.29901999 1.9436001
-0.20513545 -0.29491225 1.9431138
-0.19564682 -0.29561681 1.945341
-0.20447707 -0.28510353 1.9424942
-0.1948991 -0.2848773 1.9433637
-0.20400685 -0.27502528 1.9434632
-0.19525164 -0.27497047 1.9433875
-0.20295501 -0.26575249 1.9447418
-0.19602932 -0.26513603 1.9434335
-0.18959001 -0.26752001 1.9491
-0.18379 -0.33063999 1.9518
-0.18512499 -0.32513875 1.9552251
-0.18786545 -0.31443998 1.9540454
-0.19013 -0.30070001 1.9545
-0.18718232 -0.30478385 1.9547461
-0.2101 -0.29117 1.9518
-0.192748 -0.29388601 1.9523399
-0.210245 -0.28428501 1.9531499
-0.19025999 -0.281645 1.9559
-0.18986 -0.28510001 1.9518
-0.21049 -0.27651 1.9554332
-0.20807 -0.27193999 1.9518
-0.190532 -0.27476001 1.95452
-0.20677376 -0.26463124 1.95385
-0.19188 -0.26991999 1.9518
-0.18986 -0.26991999 1.9518
-0.182946 -0.32219201 1.9645001
-0.18370415 -0.31616667 1.9635249
-0.18385801 -0.30497098 1.96119
-0.19086251 -0.294745 1.9621251
-0.18674167 -0.29740581 1.9651499
-0.19066 -0.28935 1.9601001
-0.18841 -0.28854001 1.9684
-0.21099 -0.272075 1.9601001
-0.18943 -0.27561668 1.9684
-0.2112125 -0.2662625 1.9621501
-0.20857334 -0.26194665 1.9628334
-0.18829599 -0.267268 1.96504
-0.20615 -0.25891998 1.9656
-0.18331 -0.25690502 1.9684
-0.18641376 -0.29385877 1.97155
-0.18572886 -0.28333831 1.9724439
-0.18510647 -0.27616882 1.9735054
-0.21160334 -0.26114333 1.9721333
-0.18765999 -0.26034001 1.9712
-0.211915 -0.259215 1.9782
-0.20748445 -0.25411111 1.9739999
-0.19137287 -0.25341001 1.9764
-0.18787833 -0.25757334 1.9735333
-0.21104001 -0.24913 1.9796
-0.20631909 -0.24585909 1.9773088
-0.19152714 -0.24629286 1.9779999
-0.18614142 -0.24438216 1.9767996
-0.19256 -0.23066001 1.9796
-0.18602084 -0.23436666 1.979133
-0.19256 -0.22552499 1.9796
-0.18616714 -0.22467788 1.9785995
-0.21309 -0.1116 1.9796
-0.21270373 -0.10665625 1.97365
-0.1805 -0.28443 1.9823999
-0.21255873 -0.2548525 1.9842
-0.211565 -0.24461 1.984575
-0.20487501 -0.24358001 1.9845375
-0.19576584 -0.24629502 1.9843082
-0.21183999 -0.23771666 1.9871668
-0.20659752 -0.23554996 1.9862648
-0.19493137 -0.23594776 1.9856408
-0.18804334 -0.23646666 1.9823999
-0.2067 -0.22783896 1.9872601
-0.19421268 -0.22513999 1.9852666
-0.18873 -0.22070999 1.9823999
-0.19407666 -0.21652667 1.9881001
-0.187381 -0.21631901 1.9855598
-0.231365 -0.16143501 1.9867001
-0.22844 -0.16361 1.9881001
-0.21477 -0.115342 1.98754
-0.20987999 -0.11208 1.9881001
-0.20928 -0.1097 1.9823999
-0.21431001 -0.25055999 1.9909
-0.20193 -0.24230333 1.9909
-0.19779666 -0.24333501 1.9909
-0.21224999 -0.23300999 1.9909
-0.202104 -0.23424201 1.9926399
-0.19986001 -0.23300999 1.9909
-0.21175286 -0.22590287 1.9946001
-0.20431648 -0.22311354 1.9953115
-0.19926199 -0.22521201 1.9932001
-0.21163 -0.21520166 1.9981002
-0.20485589 -0.21526587 1.9970059
-0.19580799 -0.216598 1.9937801
-0.23236001 -0.16420001 1.99525
-0.22909001 -0.16615 1.9938
-0.21484999 -0.121315 1.9959252
-0.21302399 -0.116978 1.9943602
-0.33515 -0.44243249 2.0067499
-0.3213875 -0.44107497 2.0053
-0.31874999 -0.44340667 2.0072334
-0.27031001 -0.44327497 2.0081999
-0.26510748 -0.44327497 2.0081999
-0.33199 -0.43548203 2.0058799
-0.3254517 -0.43546334 2.0057831
-0.059945501 -0.38468751 2.0067501
-0.21617 -0.23191001 2.0081999
-0.213625 -0.22362001 2.00385
-0.20309 -0.22086 2.0023999
-0.21446285 -0.21413431 2.0061283
-0.20490374 -0.2122975 2.0049374
-0.19893999 -0.21047001 2.0023999
-0.21284202 -0.20650402 2.0081999
-0.2050781 -0.20495094 2.0064046
-0.197615 -0.20314102 2.0058799
-0.20457144 -0.19591142 2.0081999
-0.19587001 -0.195465 2.0081999
-0.23074999 -0.17151999 2.0081999
-0.22867 -0.17151999 2.0081999
-0.23342167 -0.16772334 2.0043333
-0.224722 -0.165958 2.0064597
-0.21825001 -0.16111 2.0081999
-0.22023334 -0.15686333 2.0072334
-0.21825001 -0.15902001 2.0081999
-0.22012667 -0.14639001 2.0062668
-0.218064 -0.14432201 2.0064602
-0.213625 -0.124395 2.00385
-0.21170001 -0.1172 2.0053
-0.20892668 -0.11166333 2.0053
-0.37403819 -0.44392359 2.0193727
-0.36760002 -0.44391599 2.0187399
-0.35577437 -0.44346374 2.0167937
-0.34502286 -0.44323936 2.0127571
-0.33848 -0.44287249 2.0111001
-0.31454197 -0.44341728 2.0167665
-0.30665305 -0.44426918 2.0196767
-0.29701999 -0.44690001 2.0199001
-0.28550002 -0.44375497 2.0199001
-0.27582461 -0.44320542 2.0133309
-0.26558751 -0.44095001 2.0118251
-0.37242332 -0.43607831 2.0199001
-0.36673716 -0.43522999 2.0199001
-0.35518962 -0.4350853 2.0185575
-0.34439281 -0.43541205 2.0151997
-0.33628249 -0.43453336 2.0135419
-0.32298082 -0.43407837 2.0130417
-0.31699371 -0.43625128 2.0178936
-0.30853999 -0.43747503 2.0199001
-0.28305334 -0.43712667 2.0199001
-0.27577528 -0.43678635 2.0185211
-0.26543859 -0.43530253 2.0168591
-0.25507802 -0.43365476 2.0128398
-0.36614001 -0.424905 2.0199001
-0.35428527 -0.42503124 2.0190468
-0.34447154 -0.42506242 2.0156758
-0.33593935 -0.42484128 2.0146134
-0.32370958 -0.42524573 2.016562
-0.31959999 -0.42952001 2.017
-0.26300749 -0.42792127 2.0180752
-0.25493336 -0.42515755 2.0169661
-0.36614001 -0.41966999 2.0199001
-0.35386184 -0.41689271 2.0193727
-0.34481198 -0.4150224 2.0176957
-0.060145598 -0.37448597 2.0134199
-0.060337 -0.36102 2.0199001
-0.21935999 -0.2341325 2.01845
-0.21727999 -0.22428799 2.0146
-0.2226675 -0.21336 2.0199001
-0.21808499 -0.21507335 2.0130498
-0.27189001 -0.20184 2.0199001
-0.22317542 -0.20504001 2.0165231
-0.21591061 -0.20442374 2.0118253
-0.20814 -0.20443666 2.0111001
-0.38080001 -0.19765 2.0199001
-0.37871 -0.19765 2.0199001
-0.31273001 -0.19137 2.0199001
-0.30540001 -0.19137 2.0199001
-0.29461125 -0.19316375 2.0195377
-0.27189001 -0.19973999 2.0199001
-0.22456153 -0.194572 2.0162251
-0.2147232 -0.19499882 2.014128
-0.20486572 -0.19380283 2.0125501
-0.19844002 -0.19427332 2.0114222
-0.31406999 -0.187268 2.0163801
-0.30617866 -0.18591335 2.0167732
-0.29499808 -0.18437999 2.0176761
-0.28863999 -0.18088999 2.0199001
-0.23358285 -0.1841843 2.0199001
-0.22546604 -0.1848032 2.0168519
-0.21510561 -0.1848872 2.0178115
-0.20456356 -0.18480921 2.0169756
-0.19718701 -0.184755 2.0163801
-0.30457166 -0.17694832 2.0167248
-0.29480898 -0.17523298 2.0162349
-0.28738374 -0.17395876 2.0184376
-0.24249402 -0.17204401 2.01932
-0.23435272 -0.17488274 2.0164454
-0.22508255 -0.17523399 2.0162346
-0.21503477 -0.17480783 2.0180085
-0.20569731 -0.17404935 2.0198998
-0.19613166 -0.17565501 2.0199001
-0.29393002 -0.16984665 2.0130332
-0.24360999 -0.16727999 2.0199001
-0.23864 -0.1688225 2.0132749
-0.22275779 -0.16708778 2.0133777
-0.21474144 -0.16545525 2.015276
-0.20658538 -0.16490768 2.0194538
-0.22065 -0.15195501 2.0111001
-0.21467586 -0.15523541 2.0153873
-0.2061561 -0.15556668 2.0189333
-0.19194166 -0.15506001 2.0199001
-0.22113499 -0.141835 2.0155001
-0.21440502 -0.14666 2.0182428
-0.20554999 -0.14681461 2.0187845
-0.19089667 -0.14877333 2.0199001
-0.21747623 -0.1334725 2.0155001
-0.21331668 -0.12467333 2.0140333
-0.21122666 -0.11771667 2.0140333
-0.20755 -0.1136225 2.0155001
-0.38224599 -0.44438601 2.02754
-0.37686285 -0.44335431 2.0228002
-0.36352497 -0.44440252 2.0228002
-0.30344859 -0.44335431 2.0228002
-0.29533216 -0.44437256 2.0234318
-0.28596625 -0.44448251 2.0231752
-0.38247001 -0.43623337 2.0287001
-0.3759279 -0.43464574 2.0239055
-0.36442429 -0.43421492 2.0228002
-0.31333497 -0.43346566 2.0228002
-0.30430797 -0.43484101 2.0251803
-0.29545611 -0.43592694 2.0260351
-0.28554195 -0.43478662 2.024786
-0.27438 -0.43256712 2.0228002
-0.38036999 -0.42781666 2.0287001
-0.37453449 -0.425062 2.0256302
-0.36410403 -0.424537 2.0231004
-0.32053 -0.42133 2.0228
-0.31493413 -0.42560729 2.0255048
-0.30610907 -0.42747638 2.0271094
-0.29727 -0.42991999 2.0287001
-0.28603598 -0.42937598 2.02812
-0.27523458 -0.4280718 2.026309
-0.26557428 -0.4241043 2.0253429
-0.2597 -0.42028001 2.0228
-0.37436599 -0.41738701 2.02812
-0.36499962 -0.41483951 2.0261457
-0.35589635 -0.4135254 2.0233457
-0.32160127 -0.41436505 2.0246749
-0.31865665 -0.41869998 2.0287001
-0.26303503 -0.41571748 2.0270085
-0.25523001 -0.41412348 2.0239952
-0.36564001 -0.40889001 2.0287001
-0.35532767 -0.40627766 2.0262232
-0.34490535 -0.40265876 2.025418
-0.3241086 -0.4049457 2.0255501
-0.25372201 -0.40804601 2.0287001
-0.062058914 -0.35507166 2.0248001
-0.063559331 -0.34704748 2.0279751
-0.22226 -0.23814 2.0258
-0.22096999 -0.22494 2.0267668
-0.21984001 -0.226255 2.0228
-0.27518001 -0.21114001 2.0287001
-0.22466286 -0.21473001 2.0257571
-0.38172665 -0.20232999 2.0248001
-0.37962666 -0.20232999 2.0248001
-0.29284501 -0.201525 2.0272501
-0.2852146 -0.20217538 2.0264616
-0.27571574 -0.20324428 2.0249288
-0.26670998 -0.20070499 2.0243001
-0.23083501 -0.201525 2.0272501
-0.22856501 -0.20137501 2.0257502
-0.37693501 -0.19591665 2.0272334
-0.31370777 -0.19352445 2.0254335
-0.30456501 -0.19427831 2.0247834
-0.294857 -0.19550601 2.0237002
-0.28502265 -0.1943991 2.0259087
-0.27483037 -0.19423127 2.0261459
-0.26686728 -0.19524546 2.0265727
-0.24579282 -0.19459763 2.0275953
-0.23544645 -0.19510177 2.025418
-0.22823 -0.19794001 2.0228
-0.32140249 -0.18555501 2.0250249
-0.31843001 -0.18745001 2.0228
-0.29325747 -0.18797499 2.0228
-0.28531861 -0.18518287 2.0253575
-0.27482098 -0.18501851 2.0260854
-0.26755711 -0.18371141 2.0278714
-0.25624999 -0.18167999 2.0287001
-0.24492282 -0.18515953 2.0262051
-0.23659536 -0.18593924 2.0239539
-0.19495 -0.18142 2.0258
-0.31158999 -0.17564666 2.0238001
-0.30794001 -0.17486 2.0228
-0.28389919 -0.17615461 2.0228002
-0.27290499 -0.1786 2.02355
-0.26848 -0.17931999 2.0258
-0.25554666 -0.17607333 2.0287001
-0.24611048 -0.17597684 2.0254529
-0.2377575 -0.178075 2.02355
-0.20389703 -0.17570201 2.0228002
-0.19632454 -0.17383637 2.0241637
-0.24710999 -0.16752 2.0228
-0.2018975 -0.16528 2.0242999
-0.19605105 -0.16473421 2.0245266
-0.20186 -0.15578334 2.0248001
-0.19705667 -0.15515999 2.0258002
-0.21400166 -0.14207 2.0237999
-0.20455752 -0.14394082 2.0255251
-0.19489627 -0.14628813 2.0265064
-0.215716 -0.13665698 2.0254602
-0.20597143 -0.13805144 2.0278714
-0.19103 -0.13856 2.0287001
-0.21231571 -0.12557857 2.0253427
-0.20816 -0.12338001 2.0287001
-0.2063143 -0.11657571 2.0253427
-0.38303 -0.43160501 2.0316999
-0.30085999 -0.43055001 2.0316999
-0.29348999 -0.43055001 2.0316999
-0.28400999 -0.43055001 2.0316999
-0.38251874 -0.42374876 2.0332
-0.31365499 -0.42127335 2.0326998
-0.30518857 -0.42435285 2.0344858
-0.29509282 -0.42706424 2.0344858
-0.28463671 -0.42613164 2.0349503
-0.27526706 -0.42389351 2.0348763
-0.26925999 -0.42107001 2.0316999
-0.060779002 -0.42273998 2.0346999
-0.38246334 -0.41636503 2.0362
-0.37619144 -0.41274929 2.0329859
-0.31688073 -0.41576385 2.0347002
-0.27110499 -0.417025 2.0376999
-0.26651999 -0.41323185 2.0341547
-0.37588 -0.40660998 2.0362003
-0.36505216 -0.40585926 2.0346999
-0.35645664 -0.40308666 2.0337
-0.32096374 -0.40360373 2.0339501
-0.319235 -0.40902501 2.0346999
-0.262638 -0.40821004 2.0358999
-0.25509208 -0.40416363 2.0345423
-0.37992999 -0.39800999 2.0376999
-0.35281667 -0.39902332 2.0356998
-0.34508371 -0.39676127 2.0347002
-0.33611783 -0.39531142 2.0347002
-0.32400465 -0.3946023 2.0335462
-0.25138 -0.3977125 2.0362
-0.24803001 -0.39689249 2.0346999
-0.065971993 -0.33598715 2.0368426
-0.064903997 -0.32943001 2.0316999
-0.2251275 -0.22498377 2.0350752
-0.275985 -0.21492 2.0346999
-0.23151001 -0.21265501 2.0331998
-0.2272125 -0.21731499 2.03245
-0.37850165 -0.20341833 2.0356998
-0.29286 -0.20543 2.0346999
-0.28696001 -0.20640498 2.0339501
-0.277895 -0.20844001 2.0331998
-0.24310499 -0.20106 2.0331998
-0.23566999 -0.20241332 2.0326998
-0.22945666 -0.20743667 2.0336998
-0.37694398 -0.19662198 2.0352998
-0.32255998 -0.19145668 2.0357001
-0.30529499 -0.19894999 2.0331998
-0.26345414 -0.19295418 2.0329502
-0.25547054 -0.19391473 2.0324059
-0.24398001 -0.1988 2.0316999
-0.23379 -0.1991 2.0346999
-0.32560334 -0.18765999 2.0326998
-0.26428553 -0.18698889 2.0330334
-0.2548106 -0.18589063 2.0330126
-0.25361139 -0.1777357 2.0316999
-0.250485 -0.16837999 2.0331998
-0.20083 -0.14079 2.0357001
-0.19727571 -0.14239857 2.0342715
-0.21175365 -0.13549817 2.0330637
-0.20524499 -0.13407099 2.0341001
-0.1928 -0.136602 2.0340998
-0.18606248 -0.13600001 2.0376999
-0.210425 -0.12832001 2.0331998
-0.20560668 -0.12557082 2.0342
-0.20262 -0.11769 2.0352998
-0.30340299 -0.42224997 2.0445499
-0.29458615 -0.42335767 2.0455077
-0.28601998 -0.42321005 2.0430198
-0.063259996 -0.42311001 2.0467
-0.38463402 -0.412496 2.0424199
-0.31476066 -0.41524532 2.0462663
-0.30849749 -0.41742629 2.0474248
-0.28169623 -0.41636252 2.047425
-0.27537251 -0.41587299 2.0450001
-0.063228667 -0.41654 2.0456667
-0.38409287 -0.4061757 2.0453715
-0.37549865 -0.40323266 2.0434198
-0.3659133 -0.40193552 2.0432889
-0.35852998 -0.401005 2.0421
-0.32029501 -0.40112001 2.0482001
-0.319175 -0.40621251 2.0443749
-0.27164 -0.40886 2.0497
-0.26589447 -0.40428388 2.0444777
-0.25880998 -0.40176499 2.0406001
-0.38197199 -0.39567399 2.0463698
-0.37405336 -0.39770666 2.0479414
-0.36515999 -0.39867333 2.0483665
-0.35424358 -0.39558643 2.0462356
-0.3444542 -0.39275587 2.0423665
-0.33841002 -0.39147002 2.0421
-0.32082123 -0.39515623 2.044775
-0.26513499 -0.39715999 2.0476248
-0.25544539 -0.39555925 2.0443232
-0.24836333 -0.39442667 2.0446334
-0.38216999 -0.38866502 2.0497
-0.34510788 -0.38615999 2.0468857
-0.33672696 -0.38606602 2.0460601
-0.32095996 -0.38578331 2.04565
-0.32483763 -0.37403059 2.0445235
-0.22813 -0.22719 2.0406001
-0.27932 -0.21693 2.0436001
-0.23024 -0.21449 2.0406001
-0.37383997 -0.20500875 2.0463061
-0.36941001 -0.202685 2.0497
-0.235165 -0.20344999 2.0466499
-0.37333918 -0.19639917 2.0469248
-0.324866 -0.19458202 2.0448401
-0.37206665 -0.18913667 2.0487001
-0.33458802 -0.18929 2.0472999
-0.32969999 -0.18697999 2.0406001
-0.20174374 -0.13350751 2.0440125
-0.19520628 -0.13344683 2.0445843
-0.18651624 -0.1328125 2.0455375
-0.20173286 -0.12453715 2.0427573
-0.195963 -0.12644801 2.0472798
-0.18875 -0.1283 2.0497
-0.20062 -0.11927 2.0406001
-0.19711 -0.118645 2.0482001
-0.30291 -0.4201 2.0527
-0.29589 -0.42088571 2.0535572
-0.28779665 -0.42101666 2.0537002
-0.31387776 -0.41115111 2.0540335
-0.30458093 -0.41460592 2.0561454
-0.29511201 -0.41609928 2.0581801
-0.28612 -0.41404435 2.0562999
-0.27650499 -0.41083002 2.0541999
-0.38698998 -0.40307334 2.0527
-0.31527427 -0.40515634 2.0570209
-0.30822712 -0.40579286 2.0588
-0.28235623 -0.40518245 2.0580251
-0.27587813 -0.40507129 2.0574501
-0.38495779 -0.39419663 2.0557334
-0.37541351 -0.39288568 2.0550716
-0.3652316 -0.39412159 2.0550947
-0.35636109 -0.39232227 2.0533667
-0.31564826 -0.39576122 2.0569763
-0.28245997 -0.39679503 2.0588
-0.27569413 -0.39641237 2.0584352
-0.26494601 -0.39316505 2.0554399
-0.254868 -0.39254496 2.0566401
-0.249185 -0.39223498 2.05725
-0.38368434 -0.38547999 2.0561574
-0.37458536 -0.38677076 2.0583229
-0.36557275 -0.38694093 2.0585182
-0.35460052 -0.38497582 2.0571787
-0.34306744 -0.38296667 2.0552168
-0.33606663 -0.38197669 2.0537002
-0.32100001 -0.382855 2.0527
-0.31842098 -0.38465402 2.0566301
-0.27072001 -0.38931999 2.0588
-0.26857999 -0.388255 2.0588
-0.38387001 -0.37651667 2.0588
-0.35475367 -0.37477005 2.0588
-0.34508839 -0.37485558 2.0567117
-0.33765274 -0.37450638 2.0562818
-0.32183167 -0.37524834 2.0557334
-0.31744498 -0.37516999 2.05725
-0.35504502 -0.36690998 2.0588
-0.34600881 -0.36577532 2.0577059
-0.33730751 -0.36464125 2.0580375
-0.32526875 -0.36456624 2.0561125
-0.34863999 -0.35944 2.0588
-0.33306125 -0.35530624 2.0565
-0.32739776 -0.35582337 2.0557334
-0.37384498 -0.21296 2.0565
-0.23621 -0.21394999 2.0557001
-0.37106001 -0.20998999 2.0588
-0.36890498 -0.20461166 2.0547168
-0.23621 -0.20755 2.0557001
-0.37167802 -0.19257601 2.05512
-0.36898428 -0.19567142 2.0557427
-0.34296668 -0.19059335 2.0567334
-0.33576003 -0.19434001 2.0557399
-0.32787001 -0.19689 2.0557001
-0.36996001 -0.18809 2.0527
-0.35824999 -0.18651335 2.0588
-0.3425425 -0.1876975 2.0542002
-0.18477499 -0.13062 2.0527
-0.19567899 -0.12311699 2.0554202
-0.18611251 -0.1281475 2.0557251
-0.19755 -0.11785 2.0527
-0.18491 -0.11474 2.0542002
-0.30212 -0.41128001 2.0618
-0.29592198 -0.41170797 2.0618
-0.28836331 -0.41362333 2.0628333
-0.31602001 -0.40166 2.0618
-0.30422163 -0.40454057 2.0631778
-0.29479682 -0.40508443 2.0629156
-0.287496 -0.40534902 2.0642798
-0.389 -0.39126003 2.06335
-0.31510285 -0.39478999 2.0618
-0.30524087 -0.3950268 2.0632086
-0.2950764 -0.3947612 2.0648997
-0.28690422 -0.39445499 2.0651584
-0.27590197 -0.39172801 2.0624199
-0.2647033 -0.39204001 2.0618
-0.38461065 -0.38465735 2.06428
-0.37488249 -0.38329375 2.0621874
-0.36450642 -0.38418147 2.0622427
-0.35878 -0.38135001 2.0618
-0.31394264 -0.38570201 2.0622132
-0.30571705 -0.3853825 2.0638666
-0.29553086 -0.38490087 2.067461
-0.28385749 -0.38515502 2.0650549
-0.27541566 -0.38540813 2.0650475
-0.26445261 -0.38552177 2.0627434
-0.25448915 -0.38590086 2.064254
-0.24847201 -0.386314 2.0655198
-0.38274384 -0.37520689 2.0651383
-0.37514597 -0.375269 2.0636597
-0.36547676 -0.37522441 2.0634117
-0.35592663 -0.37446111 2.0618
-0.32110199 -0.37537998 2.06428
-0.31361955 -0.37539285 2.0654902
-0.30554357 -0.37594646 2.0667238
-0.29515833 -0.37676835 2.0680001
-0.28507915 -0.37667418 2.0674834
-0.27399001 -0.378086 2.06738
-0.2651476 -0.37555638 2.0652719
-0.25446561 -0.37560281 2.06552
-0.24797001 -0.37549201 2.0648999
-0.3831293 -0.36504003 2.0663469
-0.37474567 -0.36457911 2.065304
-0.36520046 -0.36516762 2.0641618
-0.35564566 -0.3640171 2.0622427
-0.344666 -0.363392 2.0618
-0.33954 -0.36210999 2.0618
-0.323006 -0.364894 2.06552
-0.31572637 -0.36678725 2.0663092
-0.30730999 -0.36962 2.0680001
-0.28907999 -0.36962 2.0680001
-0.26370001 -0.36907998 2.06738
-0.25372308 -0.36722463 2.0675235
-0.247785 -0.36559001 2.06335
-0.38410911 -0.3549009 2.0674365
-0.37465417 -0.35467586 2.0673544
-0.36472687 -0.35508841 2.0668583
-0.3551434 -0.35508254 2.0645123
-0.34409246 -0.35521483 2.0640318
-0.33626598 -0.35413998 2.0627298
-0.32714498 -0.35509497 2.06459
-0.31909999 -0.35890001 2.0680001
-0.25048 -0.35675335 2.0680001
-0.24834 -0.35246 2.0680001
-0.37432 -0.34656501 2.0680001
-0.365848 -0.34645802 2.0680001
-0.35492188 -0.34580481 2.0672622
-0.34511051 -0.34598255 2.0670702
-0.33434266 -0.34523469 2.0640731
-0.3282522 -0.34515223 2.065589
-0.34697998 -0.3396 2.0680001
-0.33519077 -0.33572534 2.0675232
-0.32767999 -0.338525 2.0680001
-0.283086 -0.22389798 2.0648999
-0.37336999 -0.2144475 2.0656748
-0.295075 -0.218115 2.0648999
-0.23691 -0.21315666 2.0618
-0.36627999 -0.20092332 2.0680001
-0.34055001 -0.20235001 2.0680001
-0.33518499 -0.20128 2.0680001
-0.36584902 -0.19601901 2.0667601
-0.35625798 -0.19314899 2.0658298
-0.34467921 -0.19545417 2.0649002
-0.33456501 -0.1987675 2.0641251
-0.32826 -0.19991 2.0648999
-0.35254002 -0.18902333 2.0628333
-0.34808999 -0.18786001 2.0618
-0.19415 -0.12265 2.0618
-0.18594252 -0.1266225 2.065675
-0.18587001 -0.11855 2.0648999
-0.39045 -0.38198 2.0711
-0.29488 -0.38091001 2.0711
-0.28736001 -0.38520199 2.0711
-0.27447999 -0.38091001 2.0711
-0.390798 -0.374796 2.0729001
-0.38844502 -0.37352753 2.0718501
-0.32196999 -0.37151998 2.0725999
-0.30178428 -0.37200996 2.0711
-0.29539436 -0.37393066 2.0718501
-0.28463215 -0.37347504 2.072386
-0.27555647 -0.3735871 2.0725179
-0.39103001 -0.365345 2.0741
-0.38922799 -0.36459401 2.0759599
-0.32245001 -0.36777002 2.07565
-0.31439641 -0.36453214 2.0713143
-0.30473128 -0.36454734 2.0736001
-0.29551724 -0.36483666 2.0746336
-0.28599775 -0.36561501 2.0749834
-0.27518287 -0.3683486 2.0763142
-0.26533124 -0.36460128 2.0729876
-0.25625667 -0.36377168 2.0713501
-0.39150202 -0.35609001 2.07658
-0.38185999 -0.3540625 2.0711
-0.37755999 -0.35084 2.0711
-0.36682999 -0.351915 2.0711
-0.32343429 -0.35535857 2.0741286
-0.31548908 -0.35835457 2.0749547
-0.30655572 -0.35850573 2.0763144
-0.29179001 -0.3551214 2.0763142
-0.28843498 -0.35795251 2.0748749
-0.26502874 -0.35663691 2.0758438
-0.25556365 -0.35578051 2.0734842
-0.24871001 -0.35084 2.0711
-0.38390589 -0.34437889 2.0732296
-0.37525371 -0.34433314 2.0720475
-0.36482891 -0.34346554 2.0719333
-0.35501498 -0.34009999 2.0711
-0.34355831 -0.34153333 2.0711
-0.33547202 -0.34268004 2.0711
-0.32631403 -0.344704 2.0729001
-0.29038 -0.34974 2.0771999
-0.2516 -0.34865999 2.0771999
-0.24908 -0.34813499 2.0741
-0.38316831 -0.33736333 2.0761669
-0.37373099 -0.33617896 2.0759602
-0.36518937 -0.33625939 2.0754626
-0.35551712 -0.33471236 2.0728707
-0.345451 -0.33483499 2.0716996
-0.33357301 -0.33455497 2.0726001
-0.32737753 -0.33421999 2.0745125
-0.35392606 -0.32742664 2.0759602
-0.34454566 -0.32664755 2.0750751
-0.32792222 -0.32529223 2.0754778
-0.29640001 -0.22017001 2.0741
-0.28334999 -0.22650667 2.0731001
-0.23831999 -0.22232001 2.0741
-0.37382999 -0.21585999 2.0741
-0.29809999 -0.21984001 2.0711
-0.23796999 -0.21984001 2.0711
-0.3652193 -0.20525399 2.0741267
-0.35514638 -0.2024518 2.0769181
-0.3450827 -0.20354818 2.0741274
-0.33529446 -0.20460111 2.0737889
-0.32817 -0.20265999 2.0711
-0.36425 -0.19492599 2.0711
-0.35517401 -0.19673201 2.072
-0.34964001 -0.197285 2.0711
-0.18737668 -0.12334833 2.0736167
-0.18427999 -0.1189 2.0711
-0.32333332 -0.36338332 2.0814333
-0.29728001 -0.36105001 2.0804
-0.2833811 -0.36272442 2.0804002
-0.27504069 -0.36432126 2.0818467
-0.39060163 -0.35402831 2.0814333
-0.32392558 -0.35396335 2.0852222
-0.31474611 -0.35363165 2.0833278
-0.30469239 -0.35392708 2.0833175
-0.29715067 -0.35492602 2.0824668
-0.28453749 -0.35463417 2.0818207
-0.27545366 -0.35564151 2.0852945
-0.26512298 -0.35160002 2.0819499
-0.2569325 -0.35093001 2.0811749
-0.39220124 -0.34530252 2.0846624
-0.32379091 -0.34545636 2.0868819
-0.31487751 -0.34966999 2.0897
-0.30497333 -0.34913662 2.0886667
-0.29354921 -0.34548998 2.0856462
-0.28517166 -0.34637505 2.0872889
-0.27584857 -0.34790143 2.0883715
-0.26489726 -0.34712911 2.0863183
-0.25578111 -0.34710664 2.085911
-0.38533211 -0.33424643 2.0823929
-0.37657169 -0.33334664 2.0814335
-0.36570001 -0.33176571 2.0804002
-0.32553998 -0.33610502 2.0840166
-0.38441643 -0.32766429 2.0865998
-0.37459266 -0.32661134 2.0863934
-0.36502528 -0.32603467 2.0853238
-0.35557184 -0.3226082 2.0829365
-0.34676126 -0.32152501 2.0811751
-0.32582 -0.32486001 2.0834999
-0.35396925 -0.31668848 2.0887463
-0.34555581 -0.31538832 2.0863416
-0.32725558 -0.31477776 2.0835001
-0.34196001 -0.29982999 2.0897
-0.28714752 -0.23213251 2.0850499
-0.301875 -0.22615001 2.0897
-0.29802334 -0.22426002 2.0855668
-0.371465 -0.21376 2.0850501
-0.36501858 -0.21207999 2.0852714
-0.35524333 -0.21108334 2.0871167
-0.3466 -0.21051 2.0850501
-0.33871502 -0.21099 2.0897
-0.36362249 -0.20657499 2.0834999
-0.35485125 -0.2068775 2.0811751
-0.34707332 -0.20798333 2.0814333
-0.33499247 -0.20819251 2.0834999
-0.32881001 -0.206955 2.0819499
-0.18511 -0.12267 2.0804
-0.32512 -0.3502 2.0929
-0.27375337 -0.3509233 2.0929
-0.39298666 -0.34202996 2.0960333
-0.32246715 -0.34507719 2.0937858
-0.3145555 -0.34430817 2.0954545
-0.3052884 -0.34435105 2.0955367
-0.29613799 -0.34387401 2.0966599
-0.28481832 -0.34177503 2.0944667
-0.27540943 -0.34401 2.0964
-0.26508859 -0.34299996 2.0962572
-0.25565889 -0.3428711 2.0967333
-0.3947925 -0.33589247 2.0984001
-0.32331356 -0.33523926 2.0962644
-0.3164058 -0.33593583 2.0986664
-0.29420373 -0.336725 2.0968125
-0.28500402 -0.338211 2.0979199
-0.27996001 -0.33985999 2.096
-0.26949999 -0.3382 2.0992
-0.390515 -0.32331499 2.09445
-0.38523248 -0.32235003 2.0952332
-0.3755908 -0.32176754 2.0949752
-0.36690569 -0.32185003 2.0960286
-0.32333532 -0.32454666 2.0953867
-0.31552786 -0.32591352 2.0991998
-0.39140001 -0.31751502 2.0992
-0.38538125 -0.3153075 2.0989997
-0.37664902 -0.31693599 2.0982401
-0.36219665 -0.3155711 2.0967221
-0.35525888 -0.31354338 2.0929
-0.34754333 -0.31185332 2.0929
-0.32370555 -0.31573114 2.0977888
-0.31522 -0.3186 2.0992
-0.38051999 -0.30881 2.0992
-0.36147499 -0.30826497 2.0992
-0.35517001 -0.30585527 2.0969589
-0.34700626 -0.30583748 2.0956376
-0.32844749 -0.3057425 2.0968001
-0.35729668 -0.29828668 2.0992
-0.34353164 -0.29653832 2.0970833
-0.33525082 -0.2946125 2.0962999
-0.30115667 -0.34161663 2.1024001
-0.27440998 -0.34324002 2.1034667
-0.26205 -0.34178665 2.1034667
-0.25792 -0.34088999 2.1024001
-0.39418 -0.33217001 2.1024001
-0.32005 -0.33434999 2.1024001
-0.31257573 -0.3355957 2.1024001
-0.30510247 -0.33469197 2.1045763
-0.29493845 -0.33410308 2.1051078
-0.2852447 -0.33345008 2.104847
-0.27505264 -0.33533898 2.1057687
-0.26563331 -0.33563727 2.1059558
-0.255036 -0.33550796 2.1055996
-0.24836333 -0.33250332 2.1045334
-0.39585635 -0.32543361 2.1050184
-0.32005 -0.32508498 2.1024001
-0.31207559 -0.32371891 2.1041777
-0.3060911 -0.32503113 2.1071997
-0.29579735 -0.3257013 2.1066668
-0.28697285 -0.32661572 2.1087999
-0.24654751 -0.3247475 2.1061335
-0.39500749 -0.31433585 2.1058667
-0.38720399 -0.31080598 2.1024001
-0.37413388 -0.3135711 2.1027555
-0.36710334 -0.3142978 2.1027555
-0.32371184 -0.31401455 2.1056001
-0.31513059 -0.31549942 2.1059556
-0.30790001 -0.31786999 2.1087999
-0.29587501 -0.31786999 2.1087999
-0.2453157 -0.31482571 2.1051431
-0.39285553 -0.30667555 2.1070223
-0.38473207 -0.30395651 2.1055999
-0.37473041 -0.30486456 2.1061816
-0.36548713 -0.30483714 2.1040001
-0.35320333 -0.30317834 2.1029332
-0.34839001 -0.30273998 2.1024001
-0.32585999 -0.30476359 2.1067426
-0.3161025 -0.30748248 2.1087999
-0.24535999 -0.306218 2.1068799
-0.38319999 -0.29807499 2.108
-0.37519181 -0.29671362 2.1082182
-0.3650963 -0.29575896 2.1054318
-0.35485271 -0.2948755 2.104291
-0.34642419 -0.293805 2.1048
-0.33338249 -0.29342252 2.1040001
-0.32977 -0.29819 2.1087999
-0.24011999 -0.29163 2.1087999
-0.36293331 -0.28871003 2.1087999
-0.35562283 -0.28781432 2.1083429
-0.34406573 -0.28812858 2.1083429
-0.33713859 -0.28781715 2.1060572
-0.058619 -0.222745 2.1087999
-0.06141771 -0.2159857 2.1083429
-0.058619 -0.215094 2.1087999
-0.060805999 -0.20852999 2.1087999
-0.058619 -0.20743999 2.1087999
-0.27617252 -0.332165 2.1128001
-0.26238 -0.33203751 2.112
-0.25580999 -0.33149001 2.112
-0.30195335 -0.32289335 2.1130667
-0.29344091 -0.32454634 2.1134543
-0.28357762 -0.3241376 2.1144469
-0.27498478 -0.32548097 2.1142857
-0.26477879 -0.32517719 2.1136639
-0.25483197 -0.32506749 2.1129596
-0.24498333 -0.32289332 2.1130667
-0.32150999 -0.31178001 2.112
-0.31144667 -0.31303331 2.1130667
-0.30405042 -0.31442738 2.1150608
-0.29482862 -0.31417602 2.1143465
-0.28703997 -0.31577843 2.1161847
-0.27469802 -0.31566298 2.1174402
-0.26515159 -0.3146612 2.1166084
-0.25514203 -0.31449747 2.11552
-0.24504501 -0.3153075 2.1136
-0.39599276 -0.30358636 2.1131635
-0.32397443 -0.30425003 2.1137776
-0.31504455 -0.30465198 2.11344
-0.30688769 -0.30507231 2.1156924
-0.29590586 -0.30481169 2.1168003
-0.28942999 -0.3049275 2.1176
-0.26610833 -0.30797336 2.1184003
-0.25433001 -0.30716336 2.1178668
-0.24621701 -0.303783 2.1142399
-0.39514765 -0.29528001 2.1165178
-0.38544178 -0.29400545 2.1137455
-0.37421247 -0.29218 2.1127999
-0.36969 -0.29207 2.112
-0.33111 -0.29330403 2.1145599
-0.32480502 -0.2948665 2.1163201
-0.31564751 -0.29601198 2.1174402
-0.30794802 -0.295993 2.1180804
-0.29668251 -0.2990025 2.1184001
-0.24640501 -0.296552 2.11584
-0.39168835 -0.28637162 2.1184003
-0.38476104 -0.286502 2.1177602
-0.37512359 -0.28547415 2.1162183
-0.36505863 -0.28447598 2.1130664
-0.35482788 -0.28390214 2.1129141
-0.34617561 -0.28426564 2.1129999
-0.33509129 -0.28485399 2.1147735
-0.32469001 -0.28668427 2.1184003
-0.24070199 -0.28575999 2.11392
-0.39059001 -0.27978 2.1184001
-0.37520999 -0.27978 2.1184001
-0.36497891 -0.27539739 2.1167159
-0.3550756 -0.27510163 2.1162243
-0.34524202 -0.27513599 2.1164804
-0.33648646 -0.2751565 2.1166401
-0.24158143 -0.27414712 2.1161144
-0.23864999 -0.27278 2.1152
-0.36367875 -0.26632625 2.1184003
-0.35544398 -0.26440397 2.1184003
-0.34503496 -0.26408589 2.1182549
-0.33633563 -0.26510125 2.1174002
-0.35538951 -0.2544795 2.1180804
-0.34443355 -0.25449848 2.1182404
-0.057306666 -0.20504166 2.1141336
-0.29218 -0.31321001 2.1215999
-0.28334168 -0.31428668 2.1227
-0.27629003 -0.314722 2.12292
-0.302127 -0.304456 2.1219299
-0.29253998 -0.30478001 2.1242399
-0.2858341 -0.30547646 2.1254411
-0.27522552 -0.30521557 2.1246891
-0.26480749 -0.30345374 2.1226311
-0.25652143 -0.30319285 2.123014
-0.24597999 -0.30001 2.1215999
-0.39998999 -0.29341 2.1215999
-0.32738 -0.29231 2.1215999
-0.31418002 -0.29121 2.1215999
-0.30380458 -0.29453155 2.1236231
-0.2948271 -0.29502118 2.1239059
-0.28646001 -0.29872 2.1280999
-0.270805 -0.29518253 2.1265001
-0.26612666 -0.29603001 2.1272998
-0.25501615 -0.29576078 2.1263614
-0.24651144 -0.29366571 2.1234715
-0.40059999 -0.28394252 2.1249001
-0.39618996 -0.28438783 2.1223071
-0.38544366 -0.28204909 2.1218998
-0.37432334 -0.28020999 2.1215999
-0.33177999 -0.28351 2.1215999
-0.32526335 -0.28370389 2.1221497
-0.31527999 -0.28460997 2.1215999
-0.30615431 -0.28515095 2.1240907
-0.29772818 -0.28652361 2.1269362
-0.27101001 -0.28547999 2.1280999
-0.26660001 -0.28492749 2.1280999
-0.25150999 -0.28548285 2.1258142
-0.24643598 -0.28513134 2.1255333
-0.40121001 -0.27444601 2.1280999
-0.39522669 -0.27460828 2.1255889
-0.3848255 -0.27487653 2.12292
-0.37476 -0.27476192 2.1220121
-0.36699 -0.27140999 2.1215999
-0.33177999 -0.27471 2.1215999
-0.32538 -0.27487698 2.12292
-0.31504554 -0.27478945 2.124167
-0.30626282 -0.27537501 2.1255569
-0.29969999 -0.27665332 2.1280999
-0.27101001 -0.27444601 2.1280999
-0.26501998 -0.27224001 2.1280997
-0.25241002 -0.2737211 2.1263111
-0.24668598 -0.27544501 2.1238999
-0.168395 -0.27224001 2.1280999
-0.39267334 -0.2662189 2.1270332
-0.38443998 -0.2667582 2.1258354
-0.3753539 -0.26576889 2.1254225
-0.36708334 -0.26359335 2.1221497
-0.33266872 -0.26348498 2.1220126
-0.32549497 -0.2653971 2.1248667
-0.31490797 -0.26544872 2.1253006
-0.30783379 -0.26388749 2.1252873
-0.270805 -0.26431501 2.1265001
-0.2651343 -0.26431641 2.1264927
-0.254812 -0.26430553 2.1255302
-0.24679199 -0.266294 2.12292
-0.16949999 -0.26783001 2.1280999
-0.37252599 -0.25502801 2.1280999
-0.36555308 -0.25556231 2.1221073
-0.33436713 -0.25732285 2.1220715
-0.32569331 -0.25571063 2.1240001
-0.3157143 -0.25748998 2.1234858
-0.30476999 -0.25723284 2.1239429
-0.295358 -0.25474301 2.1238999
-0.28565001 -0.256035 2.1248667
-0.27983999 -0.25459 2.1280999
-0.26569125 -0.25534624 2.1252749
-0.25352889 -0.25695997 2.1234219
-0.24856001 -0.25529501 2.1248498
-0.37142 -0.24244499 2.1280999
-0.14368001 -0.43312001 2.138
-0.28358501 -0.302495 2.1314001
-0.27686834 -0.30280164 2.1336
-0.29264998 -0.29166502 2.13305
-0.28541905 -0.29571903 2.135329
-0.2754443 -0.29628858 2.135643
-0.263253 -0.29232898 2.1314003
-0.25728199 -0.29210797 2.1314001
-0.30458 -0.28481501 2.1314001
-0.29427171 -0.28444165 2.1341503
-0.27447999 -0.2868 2.138
-0.26443353 -0.28503588 2.1315947
-0.25615457 -0.28491545 2.1314003
-0.39962 -0.27045 2.1314001
-0.30321112 -0.27348888 2.1321335
-0.29495052 -0.27516299 2.1337104
-0.27447999 -0.27127999 2.138
-0.26459891 -0.27577668 2.1317673
-0.25683898 -0.275754 2.1314003
-0.17544201 -0.271918 2.1360202
-0.167312 -0.27343601 2.1340401
-0.40158287 -0.26491144 2.1351714
-0.396227 -0.26295298 2.1333802
-0.38692001 -0.26257402 2.1320601
-0.37641001 -0.26161 2.1314001
-0.30323359 -0.26544499 2.1330504
-0.29517123 -0.26540816 2.1353192
-0.28778249 -0.26410002 2.1359375
-0.27422801 -0.264384 2.1360199
-0.26479998 -0.26602998 2.1314001
-0.17445 -0.26865 2.1347001
-0.39263749 -0.25878751 2.135525
-0.38398111 -0.25662553 2.1359835
-0.37562385 -0.25462538 2.1341925
-0.301265 -0.25940001 2.1314001
-0.29486001 -0.25959501 2.13305
-0.28733501 -0.25979 2.1347001
-0.27288499 -0.25641 2.1341503
-0.26935667 -0.25658 2.1324999
-0.382 -0.24393666 2.1380002
-0.37532848 -0.24597462 2.1344464
-0.38205856 -0.23396857 2.135643
-0.37766498 -0.23627749 2.132225
-0.38775998 -0.228625 2.13305
-0.145813 -0.44376302 2.14658
-0.14634572 -0.4363614 2.1445999
-0.14845499 -0.42633998 2.1429501
-0.17316499 -0.34243 2.14625
-0.16388832 -0.34317335 2.14625
-0.28288752 -0.29135001 2.1429501
-0.27831715 -0.29479143 2.1431859
-0.29062 -0.28519601 2.1426198
-0.28494501 -0.28568003 2.1454999
-0.27680999 -0.28509 2.1445999
-0.29043999 -0.27502999 2.1413
-0.28575999 -0.27521944 2.1463468
-0.27566999 -0.27468249 2.1429501
-0.172895 -0.27412999 2.1429501
-0.40257001 -0.2606 2.1413
-0.29043999 -0.26947999 2.1413
-0.28417102 -0.26538602 2.1459198
-0.27769336 -0.26558334 2.1457
-0.17580751 -0.26877999 2.1445999
-0.40310749 -0.25796002 2.1470752
-0.39423367 -0.25542817 2.1436999
-0.38761199 -0.25238597 2.14328
-0.28214335 -0.25667667 2.1457
-0.27532998 -0.25358501 2.1445999
-0.38399836 -0.24709332 2.1429501
-0.38681501 -0.2356025 2.1462502
-0.15173 -0.46177 2.1579001
-0.13809 -0.46105 2.1545
-0.15285 -0.455055 2.1579001
-0.14352167 -0.45580164 2.1579001
-0.16515 -0.4461 2.1579001
-0.15424463 -0.44455305 2.1545382
-0.14769334 -0.44890332 2.1534002
-0.14926 -0.43647668 2.1545
-0.1741 -0.36107001 2.1579001
-0.16423833 -0.35436666 2.1556499
-0.17258501 -0.345725 2.1528502
-0.164749 -0.345705 2.15554
-0.17357001 -0.33987999 2.1512001
-0.28064001 -0.28299499 2.1512001
-0.27840999 -0.28187999 2.1512001
-0.17396501 -0.28365499 2.1561999
-0.28127715 -0.27423429 2.1512001
-0.27840999 -0.27630499 2.1512001
-0.17357001 -0.27965 2.1512001
-0.2807475 -0.265255 2.152025
-0.27840999 -0.26181 2.1512001
-0.18054 -0.26890999 2.1545
-0.17558001 -0.26734 2.155375
-0.40335122 -0.25425875 2.1557875
-0.39647165 -0.25226668 2.1523001
-0.28078333 -0.25747666 2.1523001
-0.27618 -0.25622499 2.1512001
-0.39304572 -0.24641714 2.155957
-0.38826749 -0.245075 2.1512001
-0.39257997 -0.236444 2.1558599
-0.388825 -0.23727 2.1512001
-0.17186999 -0.23129 2.1579001
-0.16963001 -0.23129 2.1579001
-0.17146501 -0.227405 2.1528502
-0.16831499 -0.2265525 2.15535
-0.058819499 -0.14614749 2.1561999
-0.15319 -0.47142002 2.168
-0.15282667 -0.46472168 2.1629
-0.14559124 -0.46428871 2.1643875
-0.136978 -0.46649799 2.1652799
-0.16143 -0.45043999 2.168
-0.15525386 -0.45579159 2.1638153
-0.14587182 -0.45623186 2.1615088
-0.16286249 -0.44749248 2.1645999
-0.15519333 -0.44375667 2.1645999
-0.1522 -0.43852001 2.1645999
-0.16593 -0.37176001 2.168
-0.17316501 -0.36430502 2.16715
-0.16597556 -0.36407334 2.1653557
-0.173246 -0.35624999 2.1639199
-0.16555001 -0.35496888 2.1630888
-0.17314999 -0.34424004 2.1646001
-0.16425833 -0.3425467 2.1657336
-0.15310998 -0.34760001 2.1668665
-0.14996 -0.34648669 2.1645999
-0.18138 -0.26793 2.1645999
-0.17704666 -0.26366445 2.1664889
-0.40624249 -0.25211251 2.1637499
-0.17716999 -0.25935 2.168
-0.40397453 -0.24680543 2.1655271
-0.39673272 -0.24405001 2.1627452
-0.173795 -0.24811 2.168
-0.39666 -0.23862 2.1634667
-0.17331249 -0.23491125 2.1654499
-0.16691999 -0.23331501 2.1662998
-0.16624333 -0.22878332 2.1623333
-0.151225 -0.47496754 2.1747999
-0.14586 -0.47354427 2.1752856
-0.16168 -0.46015 2.1714001
-0.14142001 -0.46915999 2.1714001
-0.13466001 -0.46915999 2.1714001
-0.16280499 -0.45451999 2.1714001
-0.15943 -0.45565 2.1714001
-0.16393 -0.44664001 2.1714001
-0.14163999 -0.42704001 2.1747999
-0.16520333 -0.38555333 2.1782
-0.174475 -0.37096 2.1764998
-0.16490538 -0.37418234 2.1750615
-0.17342375 -0.36572874 2.17395
-0.16326833 -0.36577001 2.1725333
-0.15878429 -0.36470857 2.1757715
-0.17279166 -0.35478663 2.1742332
-0.16168 -0.35657501 2.1714001
-0.15379 -0.35665002 2.1757715
-0.17245667 -0.34285331 2.1747999
-0.16519 -0.34108502 2.1731
-0.15493 -0.34981999 2.1714001
-0.17420501 -0.33882499 2.1731
-0.1649 -0.33538544 2.1760366
-0.151785 -0.33458504 2.1747999
-0.16445 -0.32833001 2.1782
-0.1834325 -0.2636475 2.1756499
-0.18026 -0.25604999 2.1782
-0.17678443 -0.25463331 2.1725333
-0.40818 -0.24456166 2.1731
-0.18026 -0.24928001 2.1782
-0.1743207 -0.24499357 2.1745572
-0.16800143 -0.24540575 2.1782
-0.17485198 -0.23919001 2.17276
-0.16751 -0.23864751 2.17395
-0.27061 -0.17022 2.1782
0.13133499 -0.13510501 2.1764998
-0.15204667 -0.48168001 2.1839001
-0.147975 -0.48117501 2.18505
-0.14887001 -0.47815001 2.1816001
-0.14366801 -0.42724198 2.18502
-0.1388 -0.42758501 2.1833
-0.15137 -0.41093001 2.1849999
-0.14616001 -0.41190669 2.1861999
-0.16523001 -0.40704 2.1884999
-0.15161 -0.40931001 2.1884999
-0.14657 -0.40827399 2.1877999
-0.13799 -0.40817499 2.1884999
-0.16493374 -0.39471248 2.1845872
-0.1648743 -0.38514569 2.1838071
-0.17282751 -0.37453499 2.184175
-0.16214199 -0.37625998 2.18366
-0.15758 -0.37280336 2.1873333
-0.153945 -0.36572501 2.18297
-0.14934 -0.36505499 2.1884999
-0.17175999 -0.34296 2.1849999
-0.16018 -0.34016001 2.1816001
-0.15792 -0.34016001 2.1816001
-0.16258223 -0.3351711 2.1835001
-0.15691376 -0.33476624 2.1833
-0.16244 -0.32885 2.1816001
-0.15716 -0.32962 2.1867499
-0.18271498 -0.25534666 2.1850336
-0.18097 -0.24459499 2.1867499
-0.18083 -0.23873 2.1849999
-0.26919001 -0.17189001 2.1849999
-0.2927525 -0.164965 2.1833
-0.28491998 -0.16533999 2.1822801
-0.26898003 -0.164965 2.1833
0.15539999 -0.12977 2.1816001
-0.14271833 -0.42307666 2.19715
-0.13843 -0.42426333 2.1954
-0.15664166 -0.41287997 2.1954
-0.14358455 -0.41571999 2.1950819
-0.138265 -0.41580251 2.192775
-0.16474 -0.40465751 2.19715
-0.15107 -0.40750998 2.19715
-0.14420143 -0.40581995 2.1941502
-0.162002 -0.39624 2.194
-0.15496612 -0.39389613 2.1967611
-0.14618267 -0.39561933 2.1956334
-0.17308 -0.38313499 2.194525
-0.16119333 -0.38556001 2.1954
-0.15710333 -0.38500667 2.1965668
-0.1723 -0.37812999 2.1919
-0.15497859 -0.37441999 2.1949
-0.14821334 -0.36715999 2.1942332
-0.16119 -0.33092001 2.1954
-0.16481666 -0.32754335 2.1930666
-0.183815 -0.25446001 2.19365
-0.18296501 -0.24575001 2.19715
0.45647001 -0.12168 2.1989
-0.15535 -0.43154001 2.2093
-0.15248251 -0.42066249 2.2093
-0.14615333 -0.42562667 2.2050221
-0.16196001 -0.41027001 2.2058001
-0.15498 -0.41337001 2.2040501
-0.17138 -0.40404999 2.2093
-0.16564168 -0.40499333 2.2040501
-0.15475437 -0.40482312 2.2049253
-0.14297999 -0.40309 2.2040501
-0.17366999 -0.39030001 2.2093
