# .PCD v0.7 - Point Cloud Data file format
VERSION 0.7
FIELDS x y z
SIZE 4 4 4
TYPE F F F
COUNT 1 1 1
WIDTH 383
HEIGHT 1
VIEWPOINT 0 0 0 1 0 0 0
POINTS 383
DATA ascii
-60.587208 -227.72432 1203
-76.465233 -221.03885 1203
-67.474838 -221.90533 1201.6666
-60.587208 -222.84949 1203
-76.77861 -212.05521 1203
-73.12249 -206.83218 1203
-86.227402 -225.03249 1211
-54.68079 -227.13559 1211
-83.985367 -220.45636 1209
-79.654106 -218.00072 1207
-65.050446 -218.24153 1208.3334
-56.783901 -221.5273 1211
-47.319916 -222.92938 1211
-84.124298 -210.31073 1211
-76.509865 -208.56799 1207
-66.270088 -211.71248 1208.7142
-82.021187 -206.10452 1211
-75.586823 -201.5614 1209
-69.402542 -201.89832 1211
-75.711868 -193.06528 1211
-68.35099 -194.53745 1211
-40.169174 -227.29536 1217.5
-30.721693 -226.7049 1220
-23.306112 -226.7049 1220
-90.732323 -223.66573 1215
-88.419075 -220.40947 1218
-59.081512 -217.33557 1215
-51.344646 -219.44562 1215
-41.799477 -221.70764 1218.75
-33.899799 -222.46742 1220
-87.749596 -211.43741 1217.5
-58.378162 -211.00542 1215
-48.531242 -211.0054 1215
-41.93045 -212.14436 1217.5
-33.899799 -210.81436 1220
-83.698814 -201.15849 1215
-64.004967 -199.75179 1215
-57.674809 -199.75179 1215
-50.302643 -201.62564 1217
-42.26881 -202.89516 1217
-33.899799 -203.39879 1220
-85.635193 -193.46503 1217.5
-65.411674 -192.01492 1215
-56.268108 -192.71826 1215
-50.849697 -193.86447 1220
-44.493484 -194.92384 1220
-83.224121 -184.77879 1218.3334
-75.961945 -185.68475 1215
-64.356644 -184.10222 1215
-57.75296 -186.63994 1216.6666
-51.555943 -186.4489 1220
-42.374748 -188.56763 1220
-84.749496 -175.85519 1220
-77.423645 -175.95941 1215.8334
-66.415474 -176.40921 1218
-58.265278 -175.85519 1220
-50.143452 -176.56145 1220
-83.690125 -165.26151 1220
-76.654121 -165.98099 1216.4286
-67.35096 -166.09222 1218.3334
-58.265278 -165.26151 1220
-82.63076 -158.9053 1220
-76.274544 -158.9053 1220
-65.680862 -158.9053 1220
-76.274544 -152.54909 1220
-66.104607 -149.1591 1220
-29.856831 -226.05885 1228
-19.193676 -226.05885 1228
-13.837787 -227.81985 1226
-8.5305233 -228.1915 1228
0 -229.25781 1228
-38.262314 -218.94547 1224
-29.759579 -219.79573 1224
-21.307205 -221.07808 1227
-13.212585 -220.79465 1227.2
-93.835754 -215.39571 1228
-28.743626 -210.78311 1226
-23.458939 -213.26308 1228
-89.278732 -201.93999 1224
-28.790516 -200.4673 1228
-88.215889 -192.37442 1224
-38.262314 -193.43726 1224
-31.916519 -192.58397 1225.3334
-23.458939 -194.0694 1228
-87.153046 -184.93451 1224
-48.890736 -182.80884 1224
-39.010239 -183.71654 1225.3334
-34.066521 -185.23322 1226
-89.424614 -176.72354 1226
-53.142101 -172.1804 1224
-39.934727 -175.72496 1226.5
-34.122093 -178.07468 1228
-88.053802 -166.16228 1226.6666
-50.012623 -166.26967 1225.5
-43.718933 -168.47783 1228
-87.326714 -155.48198 1226.4
-58.503204 -155.83139 1225
-50.649979 -156.21521 1228
-44.785248 -157.81468 1228
-84.413734 -147.54285 1225.3334
-75.816063 -147.38075 1224
-63.770523 -144.54652 1224
-57.516193 -148.41118 1226.6666
-53.315769 -151.41678 1228
-85.305229 -141.28679 1228
-75.296463 -139.96033 1224.8
-66.589142 -139.03781 1227
-59.6633 -142.23676 1227
-82.461723 -131.51224 1228
-76.093933 -131.79539 1226.8572
-67.177872 -133.28943 1228
-75.873032 -121.48075 1227.2
-70.376816 -121.55995 1228
-72.509445 -115.16206 1228
-96.134674 -227.17857 1237
-17.130512 -226.97929 1233
3.7577198 -229.13927 1236
-95.903702 -220.19717 1234
-17.130512 -220.55536 1233
-5.7101707 -221.26912 1233
5.0126085 -220.55476 1237
10.741304 -220.19673 1237
-94.831299 -211.09135 1234
-21.413141 -210.91943 1233
-14.989199 -214.13141 1233
-7.7226243 -211.11238 1235.4
8.5930433 -212.67781 1237
-95.812424 -202.79582 1237
-23.554455 -203.42484 1233
-13.918542 -199.14221 1233
-6.4447823 -201.93652 1237
-93.97435 -192.66513 1235.4
-22.840683 -194.14581 1233
-13.575549 -192.20827 1234.3334
-8.5930433 -191.19522 1237
-92.892159 -183.63838 1234.3334
-27.837084 -186.29433 1233
-21.853909 -185.12764 1233.8
-15.010038 -186.59303 1235
-8.5930433 -184.75043 1237
-94.523476 -176.15738 1237
-30.513725 -175.05243 1233
-22.341911 -176.15739 1237
-11.815434 -175.08325 1237
-8.5930433 -176.15738 1237
-92.892159 -167.20543 1234.3334
-39.971195 -164.88118 1233
-31.257582 -166.10355 1235.2858
-21.912258 -166.70505 1237
-16.111956 -168.63847 1237
-94.523476 -156.82303 1237
-49.250225 -160.59856 1233
-41.755627 -156.85126 1233
-31.686848 -157.36011 1237
-93.449341 -150.37827 1237
-49.298855 -147.91045 1234.3334
-40.737762 -149.65544 1234.6
-31.507822 -149.66217 1237
-92.375214 -140.71109 1237
-86.723221 -138.11475 1233
-57.815479 -139.18541 1233
-50.728714 -141.47955 1234.3334
-39.957653 -140.49625 1237
-30.612717 -141.78522 1237
-25.779129 -141.78522 1237
-90.226952 -131.04391 1237
-87.936279 -130.82855 1235
-65.666969 -129.90639 1233
-58.933025 -128.5813 1234
-51.204628 -131.09622 1235
-41.246613 -130.1846 1237
-90.226952 -120.3026 1237
-85.77462 -121.30492 1234.7142
-65.845413 -121.51958 1233
-58.354897 -120.57527 1235.4
-53.70652 -121.37674 1237
-79.228622 -115.63096 1233
-62.09811 -115.63096 1233
-2.156944 -217.85136 1242
7.1898136 -220.72729 1242
-99.432465 -210.38947 1244.6666
-2.156944 -209.94257 1242
2.156944 -208.50459 1242
-99.538979 -201.24185 1246
-97.062485 -202.75275 1242
-4.3138881 -198.43886 1242
3.786809 -203.40573 1246
-97.062485 -191.96802 1242
-4.3138881 -194.12498 1242
-97.062477 -185.49719 1242
-4.3138881 -185.49719 1242
-97.062477 -175.43146 1242
-5.3923602 -176.33017 1242
12.983345 -175.27515 1246
-99.538979 -168.78348 1246
-95.984009 -166.08469 1242
-21.569441 -163.92775 1242
-13.489584 -164.59723 1243
-8.2172279 -167.3754 1245.2
-99.219429 -161.77081 1242
-97.140633 -158.11946 1243
-23.007402 -156.01897 1242
-14.402782 -157.34636 1244
-7.5736179 -155.80014 1246
-96.140312 -148.52609 1244
-22.668755 -147.90813 1243.3334
-95.728722 -140.35187 1243.3334
-23.307501 -139.42752 1242.8
-17.311127 -138.48901 1246
-93.976425 -130.70004 1244
-38.824993 -127.2597 1242
-30.589127 -130.27223 1243.3334
-21.619804 -132.97162 1245
-17.311127 -131.99734 1246
-92.899689 -122.06184 1244
-49.07048 -120.24963 1242
-41.087532 -121.96285 1245.2
-31.376417 -123.34177 1246
-104.75912 -211.68849 1252.3334
-102.67749 -201.436 1252.6
6.5177226 -199.87683 1251
-102.43748 -191.79784 1255
2.1760476 -192.73796 1251.6666
10.880238 -195.84081 1253
-102.43748 -185.25928 1255
0 -184.66881 1251
10.897604 -183.07976 1255
-102.21982 -176.16838 1252.3334
-2.1795208 -172.18214 1255
2.6154251 -175.11954 1254.2
10.862871 -175.97852 1251
-101.64947 -166.33565 1252
-4.3486218 -165.37961 1253
0 -165.64359 1255
10.862871 -169.46078 1251
-102.43748 -156.92551 1255
-2.1795208 -156.92551 1255
0 -159.10503 1255
-102.43748 -150.38692 1255
-14.483829 -150.63181 1251
-7.0608664 -149.90762 1251
-100.25796 -141.66885 1255
-14.483829 -141.94151 1251
-5.9029422 -141.09749 1252.7142
-100.25796 -130.77126 1255
-97.765839 -131.07863 1251
-21.725742 -128.18187 1251
-13.035445 -130.35445 1251
-6.9633522 -131.47217 1253.4
-100.09819 -121.86214 1253
-97.765839 -121.66415 1251
-31.140228 -120.93996 1251
-22.449934 -122.38834 1251
-13.759636 -122.38834 1251
-6.5385628 -124.23269 1255
-109.75755 -223.9054 1264
-109.41021 -211.16171 1260
-109.75755 -204.14903 1264
-107.56239 -199.75873 1264
-107.56239 -193.17328 1264
-107.56239 -184.39267 1264
-107.56239 -175.61206 1264
-106.46481 -165.73389 1264
4.3764086 -166.30353 1260
-105.0338 -153.1743 1260
4.3764086 -155.3625 1260
10.975755 -155.85571 1264
-104.5267 -146.91997 1262.6666
6.0227718 -147.27135 1261
10.975755 -147.0751 1264
-103.79498 -141.07086 1262.6666
4.3903017 -139.94087 1264
-103.79498 -131.57243 1262.6666
2.634181 -130.83098 1264
-105.20399 -123.82805 1262
-2.1882043 -124.72764 1260
0 -122.92845 1264
-108.41336 -234.52687 1274
-111.51505 -228.54187 1271.5
-103.58021 -233.60643 1269
-113.5759 -220.51424 1274
-115.05091 -209.08292 1274
-111.95617 -200.34111 1272.3334
-111.07394 -192.7229 1270.6666
-107.98788 -189.52974 1269
-111.95617 -184.87373 1272.3334
-110.48116 -176.03813 1272.3334
-107.98788 -176.30673 1269
-108.41336 -165.93881 1274
-107.98788 -156.47223 1269
-108.41336 -148.23868 1274
-107.98788 -152.06456 1269
-108.41336 -140.49487 1274
-105.78404 -138.84155 1269
7.3461137 -138.84157 1269
-108.41336 -131.64481 1274
-106.88596 -131.12814 1269
7.3576913 -130.19701 1270.6666
-118.09182 -236.18364 1283
-111.80045 -236.9281 1279
-104.39645 -237.6685 1279
-119.11385 -229.87737 1282
-118.09182 -220.58661 1283
-115.50245 -219.8989 1279
-118.09182 -208.3318 1283
-115.50245 -214.34589 1279
-118.09182 -201.64735 1283
-115.50245 -206.57169 1279
-118.09182 -191.6207 1283
-115.50245 -193.24448 1279
-118.09182 -184.93625 1283
-115.50245 -186.58087 1279
-114.88245 -175.6555 1280.3334
-112.03432 -166.93507 1281.6666
-111.40738 -158.19849 1283
-112.34779 -146.83197 1281
-111.79248 -139.04388 1281
-112.34779 -130.70047 1281
-119.01226 -247.00658 1293
-112.27572 -247.00658 1293
-105.53917 -244.76106 1293
-119.67046 -238.2225 1288
-110.0302 -242.51555 1293
-107.78468 -242.51555 1293
-127.99432 -226.79695 1293
-124.09549 -230.24425 1291.3334
-121.0255 -220.19412 1290.5
-119.90491 -214.02982 1290.5
-121.25777 -205.46455 1293
-119.45395 -194.1076 1289.6666
-119.90491 -184.33969 1290.5
-119.45395 -178.43242 1289.6666
-116.31521 -172.23598 1288
-115.19679 -166.0847 1288
-121.25777 -154.94049 1293
-114.97311 -156.57817 1288
-119.01226 -148.20395 1293
-116.31521 -149.86768 1288
-116.31521 -140.92035 1288
-126.72134 -244.39114 1303
-121.51263 -245.28815 1301.75
-112.70988 -245.70755 1298
-127.73788 -240.44775 1298
-129.86819 -231.50244 1300.5
-129.24055 -220.96939 1301
-130.27379 -211.59181 1300.7778
-123.98087 -207.38618 1298
-128.29694 -202.33247 1301.75
-122.85378 -198.3694 1298
-126.72134 -195.73921 1303
-121.72668 -174.70032 1298
-121.84608 -166.40338 1299.25
-122.85378 -156.66675 1298
-121.72668 -146.52284 1298
-121.46513 -138.62135 1300
-120.83402 -133.25381 1300.5
-134.02229 -221.47754 1308
-132.00255 -199.1396 1310.5
-128.834 -192.68094 1313
-128.0208 -185.48199 1310.5
-125.41363 -180.13957 1313
-127.69387 -173.29883 1313
-125.41363 -175.57907 1313
-127.69387 -165.31796 1313
-124.93604 -170.36732 1308
-127.69387 -155.05684 1313
-124.93604 -159.00951 1308
-124.93604 -147.65167 1308
-127.53178 -141.19591 1311.3334
-127.69387 -134.53462 1313
-135.04694 -196.84807 1318
-132.758 -192.2702 1318
-128.18015 -178.53662 1318
-128.18015 -165.94751 1318
-130.46907 -144.20265 1318
-130.46907 -139.62479 1318
-135.8154 -185.3053 1325.5
-132.11282 -183.80914 1323
-130.80147 -176.39322 1326
-130.51335 -156.38974 1324.25
-130.96402 -148.57907 1323
-130.96402 -137.85686 1323
-134.26891 -178.25354 1333
