# .PCD v0.7 - Point Cloud Data file format
VERSION 0.7
FIELDS x y z
SIZE 4 4 4
TYPE F F F
COUNT 1 1 1
WIDTH 175
HEIGHT 1
VIEWPOINT 0 0 0 1 0 0 0
POINTS 175
DATA ascii
-218.07018 -147.65169 1308
-218.82735 -143.10857 1308
-215.04143 -143.86574 1308
-224.88487 -129.47917 1308
-222.61331 -127.2076 1308
-223.46428 -157.3371 1313
-216.62354 -155.05684 1313
-221.94411 -151.25642 1313
-213.20317 -150.49634 1313
-223.46428 -143.65561 1313
-212.06303 -143.65561 1313
-220.04391 -136.81487 1313
-213.77322 -137.38493 1313
-218.90378 -129.97412 1313
-216.62354 -129.97412 1313
-225.74452 -121.99326 1313
-221.18402 -123.13338 1313
-223.46428 -118.57288 1313
-224.31525 -162.5141 1318
-217.44846 -162.5141 1318
-219.73738 -159.08072 1318
-212.87059 -156.79178 1318
-206.00378 -150.49722 1318
-205.2408 -143.43968 1318
-208.29272 -138.48033 1318
-212.87059 -130.46907 1318
-219.73738 -119.02441 1318
-214.24394 -122.22892 1318
-208.29272 -122.83929 1318
-226.03195 -115.01878 1318
-219.73738 -116.73548 1318
-208.29272 -116.73548 1318
-227.74864 -107.57976 1318
-219.09828 -175.27863 1328
-214.48569 -177.58493 1328
-208.71994 -178.73807 1328
-228.32347 -170.66603 1328
-221.40457 -172.97234 1328
-214.48567 -170.66603 1328
-208.33557 -171.43481 1328
-221.33685 -166.95998 1323
-214.82695 -164.27943 1323
-207.17171 -164.59204 1325.5
-200.18666 -164.2084 1328
-190.65395 -164.51591 1328
-206.01942 -159.30127 1323
-199.89246 -158.5354 1323
-191.42271 -156.82825 1328
-204.48769 -153.94017 1323
-198.74365 -151.64255 1323
-191.42271 -148.7562 1328
-199.89246 -142.45209 1323
-192.71422 -142.04514 1326.3334
-206.01942 -134.79338 1323
-199.89246 -135.55925 1323
-192.19762 -136.43037 1327
-206.78531 -128.66641 1323
-199.89246 -128.66641 1323
-191.7052 -129.59438 1324.6666
-205.25356 -122.53943 1323
-199.89246 -121.77356 1323
-191.058 -122.00367 1325.5
-220.57098 -112.58311 1323
-213.67815 -113.73192 1323
-206.27702 -113.49081 1324.6666
-199.11703 -116.24661 1325.5
-192.9996 -117.17834 1323
-220.57098 -107.98788 1323
-214.48569 -107.24284 1328
-208.07506 -107.49119 1326.3334
-202.95421 -110.70229 1328
-227.46382 -101.09503 1323
-221.36047 -101.24786 1325
-216.79199 -101.4771 1328
-228.32347 -94.558205 1328
-223.71088 -94.558205 1328
-204.87582 -177.09605 1333
-203.71834 -172.46609 1333
-192.14343 -168.99362 1333
-194.45842 -166.67863 1333
-185.19849 -164.36366 1333
-178.25354 -164.36366 1333
-185.19849 -159.7337 1333
-179.41104 -157.41872 1333
-173.62358 -157.41872 1333
-185.19849 -150.01077 1333
-173.62358 -152.78876 1333
-185.19849 -143.52882 1333
-185.19849 -136.58389 1333
-178.25354 -136.58389 1333
-206.03333 -106.48913 1333
-212.97826 -104.17415 1333
-208.3483 -104.17415 1333
-218.76572 -96.071716 1333
-202.66243 -179.3708 1341.3334
-184.25548 -177.25844 1343
-179.59077 -179.59077 1343
-199.06059 -173.50029 1338
-191.70232 -174.27484 1338
-186.24049 -172.27679 1340.5
-178.37048 -171.39369 1339.6666
-173.1541 -165.39119 1341.3334
-178.92216 -155.68552 1338
-169.94444 -158.30875 1340.5
-166.37415 -159.37709 1343
-178.92216 -151.03818 1338
-171.38789 -150.44887 1339.6666
-165.59669 -151.6026 1343
-178.92216 -144.0672 1338
-172.26811 -144.33638 1340.5
-165.59669 -144.60556 1343
-160.34891 -145.18864 1343
-176.5985 -139.41986 1338
-171.95117 -137.67712 1338
-164.81924 -136.83107 1343
-165.59669 -132.94383 1343
-212.6153 -101.07941 1338
-209.9113 -101.45713 1343
-213.77713 -97.59391 1338
-199.13527 -182.73589 1349
-192.10696 -182.73589 1349
-182.73589 -182.73589 1349
-197.96388 -179.22174 1349
-192.10696 -178.05035 1349
-185.07866 -180.39313 1349
-175.70758 -176.87897 1349
-173.36482 -178.05035 1349
-170.43636 -171.02205 1349
-163.99374 -169.85068 1349
-159.30821 -168.67929 1349
-140.56607 -173.36482 1349
-168.67929 -163.99374 1349
-163.99374 -163.99374 1349
-159.30821 -163.99374 1349
-156.96545 -156.96545 1349
-142.90884 -156.96544 1349
-154.62268 -147.59438 1349
-149.93713 -147.59438 1349
-144.08023 -149.93713 1349
-155.79407 -142.90884 1349
-147.59438 -142.90884 1349
-142.90884 -144.08023 1349
-157.74637 -136.66145 1349
-149.93713 -138.2233 1349
-208.50633 -100.73901 1349
-178.7103 -183.41319 1354
-174.00739 -184.58893 1354
-170.48021 -179.88602 1354
-163.42586 -179.88602 1354
-156.37149 -178.7103 1354
-169.30449 -174.00739 1354
-164.60158 -174.00739 1354
-156.37149 -171.65594 1354
-151.27669 -170.87213 1354
-144.61426 -171.65594 1354
-155.19577 -164.60158 1354
-150.49287 -164.60158 1354
-145.78998 -164.60158 1354
-149.70906 -158.33104 1354
-148.14142 -150.49287 1354
-148.14142 -141.08707 1354
-148.14142 -138.73563 1354
-143.43852 -138.73563 1354
-165.20941 -181.73036 1359
-153.40874 -179.37022 1359
-145.14827 -179.37022 1359
-149.86855 -174.64995 1359
-168.30937 -184.90326 1365
-163.56827 -187.2738 1365
-157.47906 -186.00604 1368.75
-149.89198 -185.58055 1370
-145.13351 -185.58055 1370
-150.80807 -180.49211 1367.5
-148.05112 -191.03371 1375
-150.43904 -188.64578 1375
