# .PCD v0.7 - Point Cloud Data file format
VERSION 0.7
FIELDS x y z normal_x normal_y normal_z curvature
SIZE 4 4 4 4 4 4 4
TYPE F F F F F F F
COUNT 1 1 1 1 1 1 1
WIDTH 628
HEIGHT 1
VIEWPOINT 0 0 0 1 0 0 0
POINTS 628
DATA ascii
-292.6098 -106.58639 1158 0.46581835 0.33550155 -0.10090733 0.58286387
-293.61533 -104.57532 1158 0.53009224 0.32053432 -0.1623264 0.64038265
-298.66556 -131.17068 1162 0.4338522 0.43805403 -0.76346219 0.98132235
-302.19708 -127.63918 1162 0.34721094 0.51287669 -0.75129366 0.97367352
-297.99289 -128.48001 1162 0.42409801 0.43625271 -0.77200258 0.98293614
-307.74661 -115.0266 1162 0.076068535 0.31327403 0.02662605 0.32347485
-303.37427 -116.37195 1162 0.11676402 0.303253 0.035286844 0.326866
-297.65656 -115.0266 1162 0.085376933 0.3534075 0.010822177 0.36373505
-306.73761 -111.99959 1162 0.13877551 0.2442748 0.050647557 0.28547153
-303.37427 -112.33591 1162 0.10443627 0.23885541 0.047911555 0.26505539
-292.20795 -111.79779 1162 0.40129644 0.30263972 -0.041982859 0.50437307
-302.7016 -107.96357 1162 0.12852103 0.098656088 0.051177651 0.16991124
-297.65656 -107.96356 1162 0.25563094 0.22310929 0.040196419 0.34167337
-292.61151 -108.97257 1162 0.50632447 0.25744534 -0.1154947 0.5796392
-296.64755 -104.93655 1162 0.34703845 0.1829477 0.013494134 0.39253998
-294.62955 -102.91854 1162 0.42456597 0.18471527 -0.03195107 0.46410868
-258.18204 -145.79692 1166 0.13017212 0.59773147 -0.691993 0.92362434
-238.94495 -147.82188 1166 0.47654623 -0.041302562 -0.27014479 0.54934543
-258.18204 -143.77196 1166 0.16131669 0.49106997 -0.82680225 0.97507679
-296.65625 -131.62222 1166 0.50146961 0.38013142 -0.74005711 0.97141969
-297.26373 -127.16732 1166 0.40856183 0.36586499 -0.82853633 0.99360579
-293.6188 -128.58478 1166 0.47964489 0.34490019 -0.78041142 0.97880405
-306.78101 -122.50992 1166 0.22940302 0.31072521 0.032334626 0.38758409
-303.0686 -122.17242 1166 0.10226303 0.2675882 0.042469352 0.28959423
-298.68118 -122.50992 1166 -0.027435064 0.15838322 0.018585593 0.16181271
-308.29974 -117.95375 1166 -0.033182114 0.3109284 -0.0076543093 0.31278765
-302.93362 -117.8525 1166 0.064192183 0.33468574 0.015954524 0.3411594
-297.37943 -118.02607 1166 0.037013702 0.34582692 0.0032835901 0.34781754
-293.6188 -115.42256 1166 0.039573468 0.40764353 -0.027155936 0.41045919
-303.0686 -112.04764 1166 0.041549876 0.176442 0.041117489 0.18587312
-298.0737 -112.58762 1166 0.10267036 0.24300361 0.043967247 0.26744172
-303.23737 -106.8165 1166 0.30391377 0.45052987 -0.82737637 0.98989516
-299.69366 -105.29778 1166 0.14851518 -0.16434737 -0.066981196 0.23141585
-307.79349 -102.26035 1166 0.35606343 0.49885887 -0.76045191 0.97669262
-301.71863 -103.27282 1166 0.13275117 0.55053401 -0.75902772 0.94701296
-298.68118 -103.27282 1166 0.27568287 -0.12792821 -0.057409376 0.30929357
-306.78101 -98.210419 1166 0.39718938 0.48407805 -0.74718308 0.97487104
-236.50667 -150.87494 1174 0.3675352 -0.15637797 -0.4526009 0.60364211
-268.10883 -146.79724 1174 0.49397671 -0.10369676 -0.096938938 0.51396805
-263.13156 -146.29707 1170 0.29124585 -0.14089002 -0.083250523 0.33407304
-256.0199 -146.29707 1170 0.26296437 0.25958905 -0.84173977 0.91927284
-253.98799 -146.29707 1170 0.25209692 0.055894524 -0.64540738 0.69514585
-241.60379 -146.79724 1174 0.26185727 -0.046320707 -0.38886213 0.47109297
-265.73019 -142.71954 1174 0.41013247 -0.33210468 -0.0666866 0.53192973
-262.22385 -142.47411 1172 0.31175673 -0.35027224 -0.10274187 0.4800404
-257.18414 -142.01863 1171.6 0.19360094 0.047314525 -0.69922429 0.72707266
-252.85614 -142.8511 1173 0.32584962 -0.096452177 -0.59456789 0.68482989
-247.72035 -144.75839 1174 0.25913548 -0.15754166 -0.55196398 0.62978953
-241.60379 -144.75839 1174 0.054739289 -0.78269893 0.21986918 0.81483525
-260.97287 -138.64185 1174 0.23162594 -0.59143269 0.039273858 0.63638484
-258.25443 -137.96222 1174 0.12488971 -0.71097505 0.12812808 0.73314375
-254.85632 -138.64185 1174 6.22347e-05 -0.71208745 0.21972066 0.74521518
-293.09259 -131.28183 1172 0.57674187 0.15018089 -0.71089017 0.9276585
-296.65796 -125.97804 1170 0.45927662 0.30074632 -0.81922185 0.98615813
-292.38644 -126.87833 1170.8 0.56539911 0.16910408 -0.7254107 0.93514329
-289.51678 -126.40874 1174 0.58324653 0.16727808 -0.69187963 0.92024773
-296.65796 -122.93018 1170 -0.09969908 0.14587593 -0.017087191 0.17751525
-292.75974 -122.99966 1170.6666 0.55764717 0.13302183 -0.73533225 0.93240482
-293.40692 -118.25681 1170 -0.13046341 0.29832727 -0.057068378 0.33057019
-305.82758 -101.94253 1174 0.44961879 0.38770813 -0.78538156 0.98452973
-303.09869 -102.38828 1171.3334 0.41169629 0.46011508 -0.75686884 0.9767549
-299.71103 -101.94253 1174 0.44735032 -0.065575436 -0.11477911 0.4664726
-302.9837 -97.605492 1170.8889 0.32281047 0.45411414 -0.81649053 0.98847514
-297.81808 -97.429665 1172.2858 0.11293264 -0.13614273 -0.048335969 0.18337119
-306.84698 -92.7677 1174 0.50540149 0.26014563 -0.79417837 0.97663999
-302.3598 -87.612221 1173.2 -0.071141422 0.14311706 -0.0020967722 0.15983738
-299.71103 -85.631721 1174 -0.088174999 0.12362891 -0.011540949 0.15228963
-306.50717 -82.913261 1174 -0.084445596 0.2675527 -0.022579432 0.28146994
-302.76929 -82.573448 1174 -0.089515924 0.23208278 -0.0184367 0.24943021
-299.71103 -79.515175 1174 -0.14450607 0.17311138 -0.04570967 0.23008461
-235.26668 -151.38899 1178 -0.10067011 -0.58667171 0.26195762 0.65033829
-271.40909 -145.93353 1178 0.52530462 -0.24903548 -0.062963337 0.58474612
-245.49567 -145.2516 1178 0.010098457 -0.66442251 0.2708264 0.71756965
-237.3125 -147.29739 1178 -0.029941872 -0.61424041 0.28245345 0.67673314
-232.198 -147.29741 1178 -0.086258046 -0.63533878 0.26257199 0.6928491
-228.44734 -148.66127 1178 -0.1114329 -0.64620042 0.2076425 0.68782824
-270.04523 -142.18291 1178 0.46056992 -0.38595131 0.0098179877 0.60098207
-267.99945 -142.18291 1178 0.43618676 -0.54613036 0.065695345 0.70202076
-251.63306 -141.16 1178 0.31280082 -0.21779993 -0.56176722 0.67886937
-247.54149 -142.18292 1178 0.0017774627 -0.69464421 0.26251188 0.7425943
-242.42697 -142.18291 1178 0.050212279 -0.64928561 0.29193246 0.71366495
-237.31248 -142.18291 1178 -0.072193138 -0.59150612 0.29231793 0.66373271
-233.22089 -143.20581 1178 -0.094169557 -0.62574381 0.27090496 0.68834054
-290.5032 -135.02261 1178 -0.02509214 0.45194918 -0.090065956 0.46151873
-270.04523 -138.09131 1178 0.40181035 -0.43739659 0.097134829 0.60183263
-266.97656 -137.06841 1178 0.36269081 -0.57463521 0.18837856 0.70515013
-263.08954 -136.65926 1178 0.26004499 -0.60800737 0.26541701 0.71256053
-257.36127 -135.84093 1178 0.093797751 -0.61845207 0.30156243 0.69442123
-252.65594 -137.06842 1178 -0.018399581 -0.6213578 0.29201937 0.6868037
-247.54147 -137.06842 1178 0.041620787 -0.54153717 0.3333835 0.63729066
-242.42699 -137.06841 1178 0.0042805523 -0.53610116 0.33929881 0.63446552
-237.60474 -137.65292 1178 -0.064625099 -0.57423335 0.310794 0.65613508
-291.52612 -131.95392 1178 0.58323288 -0.0047710985 -0.64920086 0.8727228
-288.45743 -131.95392 1178 -0.13169537 0.33999696 -0.082994312 0.37393805
-266.97656 -131.95392 1178 0.32916385 -0.52051252 0.23220438 0.65818006
-262.88495 -131.95392 1178 0.26802313 -0.55794507 0.27887377 0.67890328
-257.77042 -131.95392 1178 0.12158572 -0.56939733 0.32040796 0.66457331
-252.65596 -131.95392 1178 0.036202058 -0.51849288 0.33539772 0.61857665
-247.54146 -131.95392 1178 0.062736914 -0.50309753 0.35389119 0.61828959
-242.42699 -131.95392 1178 -0.069139712 -0.52583265 0.3352761 0.62744749
-238.67635 -132.29488 1178 -0.069472805 -0.58205289 0.32373494 0.66963893
-290.5032 -128.88522 1178 -0.20547254 0.28672481 -0.12756729 0.37510467
-287.77548 -127.52136 1178 0.57215869 0.23733336 -0.70987916 0.94213647
-262.88495 -127.86232 1178 0.26723874 -0.49238008 0.30141723 0.63616592
-257.77045 -127.86233 1178 0.1138107 -0.46169245 0.34596273 0.58805019
-252.65596 -127.86233 1178 0.1045723 -0.46489325 0.3527205 0.59285146
-247.54149 -127.86233 1178 0.026231833 -0.53001249 0.35884899 0.64060438
-243.44987 -127.86233 1178 -0.056913294 -0.55898404 0.33979654 0.65663081
-290.5032 -123.77074 1178 0.52536082 0.41146004 -0.66431886 0.94160658
-288.45743 -124.79363 1178 0.58998656 0.30399129 -0.63792419 0.9205662
-262.68036 -123.15698 1178 0.31097448 -0.54084569 0.28666598 0.68658328
-257.77042 -122.74783 1178 0.21349746 -0.49857843 0.34931481 0.64512205
-252.65596 -122.74784 1178 0.065445848 -0.48793465 0.36441496 0.61250442
-247.54147 -122.74783 1178 -0.070429869 -0.52097881 0.33847922 0.62525791
-243.44987 -122.74783 1178 -0.14505079 -0.61088705 0.28899384 0.6911875
-261.86206 -118.65624 1178 0.2677916 -0.58329058 0.31817204 0.7163614
-257.77048 -117.63334 1178 0.21796206 -0.61870855 0.3447203 0.74103969
-252.65594 -117.63334 1178 0.059174318 -0.62412959 0.35884768 0.72236484
-247.95064 -117.83791 1178 -0.040734425 -0.61160302 0.33378983 0.69794929
-256.74756 -114.56464 1178 0.18238288 -0.62103635 0.35928896 0.74029601
-252.31499 -113.88271 1178 0.039087296 -0.65042007 0.35582605 0.74241918
-248.90533 -113.88271 1178 0.014687411 -0.61473572 0.36385581 0.71449757
-302.77802 -87.969284 1178 -0.027496591 0.1725167 0.017575622 0.17557614
-297.66351 -86.946388 1178 -0.15521419 0.12954928 -0.05191952 0.20873451
-293.91287 -86.605415 1178 -0.14973703 0.11201199 -0.045516938 0.1924569
-300.73221 -82.85479 1178 -0.13132784 0.1892187 -0.037464619 0.23335448
-297.66351 -82.85479 1178 -0.12188908 0.15771343 -0.028401881 0.20133838
-297.45892 -78.14946 1178 -0.17570904 0.11522616 -0.069010258 0.22116318
-294.59482 -75.694496 1178 -0.19044864 0.27130187 -0.095055819 0.34483474
-278.14679 -151.90305 1182 0.54100651 -0.12450442 -0.019608468 0.55549431
-276.86383 -148.05417 1182 0.50345027 -0.21383491 0.012131751 0.54711491
-227.17035 -147.11333 1182 -0.28607965 -0.5068655 0.17334403 0.60729098
-223.74908 -146.77119 1182 0.35163665 -0.32668543 -0.57574332 0.74956793
-277.12045 -142.66571 1182 0.44451129 -0.24117033 0.073096037 0.51097596
-273.01495 -142.66571 1182 0.40970945 -0.4541446 0.18277794 0.63837051
-232.6443 -142.32359 1182 -0.13160427 -0.60602915 0.27042666 0.67655122
-227.85457 -142.6657 1182 0.30457535 -0.31339043 -0.59831923 0.74092215
-295.59512 -135.48109 1182 0.12122496 0.46623755 -0.050987452 0.48443025
-292.85815 -136.84959 1182 0.096676923 0.45539469 -0.057433248 0.46907285
-288.61578 -137.12329 1182 0.160735 0.41057992 -0.034809589 0.44229323
-282.25229 -136.50748 1182 0.23514083 0.13180479 0.033902645 0.27168566
-277.12045 -137.53384 1182 0.36323288 -0.30478513 0.15301391 0.49824226
-272.50177 -137.02066 1182 0.32108507 -0.48410514 0.24705958 0.63126212
-237.09192 -135.48109 1182 -0.087243453 -0.58580232 0.30552757 0.66642547
-232.98643 -137.53383 1182 -0.16058865 -0.5885067 0.26905125 0.6667214
-228.53882 -138.21809 1182 0.30121422 -0.29289156 -0.58457309 0.7198897
-291.48965 -133.42836 1182 0.086932406 0.38268209 -0.013103783 0.39265063
-286.35779 -132.40198 1182 0.10778256 0.25692844 0.020586818 0.2793799
-282.25229 -132.40198 1182 0.12917386 0.092849404 0.030758351 0.1620277
-277.12045 -132.40198 1182 0.23052296 -0.40921891 0.19835603 0.50984907
-271.98856 -132.40198 1182 0.30633265 -0.51033241 0.24637389 0.64418858
-236.7498 -132.05986 1182 -0.12968653 -0.64519095 0.27149528 0.71189862
-232.98643 -132.40198 1182 -0.15978874 -0.62873626 0.26396039 0.70036906
-229.90732 -133.42836 1182 0.34434083 -0.32223767 -0.5470956 0.72230279
-286.15253 -127.27012 1182 0.38571584 0.37114817 -0.83007455 0.98770005
-277.12042 -127.27013 1182 0.24134333 -0.44977155 0.18081459 0.54151177
-271.98856 -127.27013 1182 0.2660993 -0.49602231 0.29831797 0.63705617
-267.88309 -127.27013 1182 0.25431764 -0.54587871 0.32310072 0.68341428
-241.63728 -126.97688 1182 -0.15437889 -0.60750151 0.27309617 0.68371958
-237.2972 -127.68068 1182 0.35896426 -0.26393855 -0.50592786 0.67415273
-233.32855 -128.63861 1182 0.32182661 -0.25129583 -0.5183419 0.65984869
-293.54239 -121.11189 1182 0.45983094 0.53831822 -0.5819028 0.91642886
-289.43689 -123.16463 1182 0.33986491 0.49283183 -0.76112974 0.96835417
-275.75192 -122.48038 1182 0.29047057 -0.47074682 0.2184189 0.59471214
-271.98859 -122.13827 1182 0.21969469 -0.50532931 0.33066851 0.6426236
-267.88309 -122.13826 1182 0.23959374 -0.508048 0.34667507 0.66007692
-264.80396 -121.11189 1182 0.26641387 -0.52351236 0.33913445 0.6782726
-241.81323 -121.933 1182 0.38857621 -0.35913903 -0.50994939 0.73486102
-275.06769 -119.05915 1182 0.35494983 -0.56097424 0.23521523 0.70427811
-271.98856 -118.03278 1182 0.26166904 -0.55641884 0.31698066 0.69177264
-267.88309 -118.03278 1182 0.23470391 -0.54045153 0.35227031 0.6864897
-264.11972 -117.69065 1182 0.23860137 -0.55553693 0.35045147 0.69883341
-246.32927 -117.0064 1182 -0.13499412 -0.58736038 0.31637096 0.68066603
-242.63432 -118.23805 1182 0.42757571 -0.35804957 -0.46415299 0.72557461
-271.98859 -114.95366 1182 0.26013136 -0.57016349 0.32233351 0.70473653
-267.88309 -112.90092 1182 0.25420597 -0.58695036 0.3477391 0.72804797
-262.75122 -112.90092 1182 0.20762502 -0.58794409 0.3621344 0.72106016
-257.61935 -111.87455 1182 0.17851472 -0.60841697 0.35500139 0.72668064
-253.00069 -111.36136 1182 0.081152998 -0.61157495 0.36015302 0.71436679
-247.15036 -112.49037 1182 -0.12593327 -0.54321557 0.33353752 0.6497612
-243.25014 -112.90093 1182 -0.15766029 -0.53321505 0.3185831 0.64083558
-266.85672 -108.79543 1182 0.23335108 -0.60124701 0.35064802 0.7341013
-262.75122 -107.76905 1182 0.21343622 -0.65851951 0.34203076 0.7721321
-257.61935 -107.76906 1182 0.15564859 -0.65499413 0.35959315 0.76325035
-252.4875 -107.76905 1182 0.096381329 -0.6663481 0.35458183 0.76094508
-247.35565 -107.76905 1182 -0.080698535 -0.58653122 0.34466621 0.68507367
-243.25015 -107.76905 1182 -0.15499137 -0.55255628 0.31655723 0.6554001
-261.38272 -104.0057 1182 0.19710955 -0.64188886 0.35184112 0.75806701
-257.61935 -103.66357 1182 0.14717267 -0.64721066 0.36448246 0.75722444
-252.23093 -102.89379 1182 0.097974293 -0.67255592 0.36683503 0.77233309
-247.35565 -103.66357 1182 0.016614117 -0.63078254 0.36826617 0.73060429
-243.59229 -104.0057 1182 -0.12281279 -0.63177544 0.31246477 0.71544212
-295.59512 -82.109764 1182 -0.18620695 0.112153 -0.074936241 0.22992773
-292.85815 -83.478249 1182 0.47190964 0.2095167 -0.81732476 0.96675527
-289.43689 -80.057014 1182 0.51244891 0.21831162 -0.76217401 0.94401962
-295.59512 -78.004272 1182 -0.17590754 0.1103155 -0.06747058 0.21832372
-289.43689 -78.004272 1182 0.5224396 0.20152602 -0.75190258 0.93750381
-287.32684 -151.38727 1186 0.50510949 -0.16336687 0.013554871 0.5310443
-283.20746 -151.90219 1186 0.52974856 -0.20413837 0.023520499 0.56820703
-282.58954 -147.06192 1186 0.51577616 -0.20899177 0.044649124 0.55829751
-222.44659 -146.23804 1186 0.41868266 -0.41559482 -0.48392057 0.76301599
-292.47607 -140.74553 1186 0.30260617 0.39917699 -0.02936703 0.50177205
-287.32684 -141.08881 1186 0.38115424 0.21577577 -0.0053608119 0.43802568
-283.20746 -142.11865 1186 0.43545753 -0.10872009 0.080843091 0.45604706
-223.68242 -142.53059 1186 0.36496171 -0.29806197 -0.52023309 0.70191199
-286.297 -136.96942 1186 0.21246043 0.23364154 -0.043329 0.31875572
-227.25252 -136.62614 1186 0.3702921 -0.30920082 -0.51839799 0.70813692
-224.50627 -137.99927 1186 0.36674801 -0.26104993 -0.49737611 0.67084587
-230.68535 -131.82021 1186 0.34845009 -0.25026411 -0.51069546 0.66697782
-227.59581 -132.85004 1186 0.38797081 -0.25249261 -0.46320534 0.65485346
-236.86443 -125.64113 1186 0.37749809 -0.2386235 -0.46827328 0.64709032
-232.3331 -127.28888 1186 0.36490721 -0.19596747 -0.45023519 0.6117779
-292.47607 -121.52174 1186 0.3989214 0.55778915 -0.59297162 0.90657723
-286.98355 -122.89487 1186 0.27260262 0.32710424 -0.6887877 0.80977643
-281.76569 -122.75755 1186 0.30122235 -0.74705189 0.15123112 0.81956834
-278.05823 -121.52174 1186 0.33865333 -0.63619298 0.26618084 0.76829672
-237.89427 -122.55159 1186 0.40290785 -0.25562948 -0.45504767 0.6593554
-234.80473 -123.58144 1186 0.37449157 -0.25332785 -0.47973338 0.65921396
-281.14777 -119.46206 1186 0.32257211 -0.72203422 0.19710487 0.81500703
-277.02838 -117.40237 1186 0.4095588 -0.64373779 0.23368138 0.79796225
-240.9838 -116.37252 1186 0.44482952 -0.37470838 -0.46877572 0.74701428
-238.23755 -118.77549 1186 0.41813743 -0.32662213 -0.47608551 0.71286631
-275.99854 -113.28298 1186 0.4063803 -0.68806273 0.21743104 0.82816148
-272.909 -112.25314 1186 0.39270365 -0.67334729 0.23737501 0.81483716
-240.9838 -112.25314 1186 0.45827198 -0.43739212 -0.46328864 0.78483212
-272.909 -109.1636 1186 0.40392652 -0.70565414 0.21763287 0.84170568
-268.17169 -106.69197 1186 0.34629235 -0.70991713 0.26978877 0.83467758
-240.98381 -107.10391 1186 0.46197027 -0.38884726 -0.4352054 0.74432683
-265.7001 -101.95468 1186 0.32834315 -0.74874097 0.26354575 0.8589986
-262.95386 -101.6114 1186 0.2774201 -0.74169856 0.2946482 0.84492385
-257.46133 -100.92484 1186 0.20473137 -0.68255591 0.34221891 0.79051334
-247.16289 -100.92484 1186 0.30042043 -0.25730908 -0.50676483 0.64286155
-242.35693 -102.29797 1186 0.41430593 -0.24634364 -0.41211519 0.63417155
-261.58072 -98.86515 1186 0.2797876 -0.72492456 0.30699092 0.83548796
-257.46133 -97.835304 1186 0.20215033 -0.67873812 0.35194644 0.79083282
-252.3121 -97.835304 1186 0.053183731 -0.6854406 0.34928322 0.7711395
-247.5748 -98.041275 1186 0.26755902 -0.21059051 -0.49224558 0.59853315
-256.43149 -93.715927 1186 0.20149095 -0.57566774 0.39027321 0.72408921
-252.51807 -93.098022 1186 -0.00071176142 -0.58819699 0.38371247 0.70229018
-249.22256 -93.715927 1186 -0.070450291 -0.62669027 0.35351408 0.72296339
-255.40164 -88.566696 1186 0.14006034 -0.59639519 0.39775908 0.73042208
-253.34195 -87.53685 1186 0.041994363 -0.64183176 0.38114405 0.74765122
-253.34195 -84.447319 1186 0.031186551 -0.66183472 0.37832272 0.76297176
-292.47607 -76.208549 1186 0.53852242 0.33770698 -0.67997181 0.93081367
-292.08475 -151.55341 1190 0.54348862 -0.016920444 0.049643815 0.54601347
-219.7999 -151.37163 1194 0.37492684 -0.53708303 -0.44858298 0.79388601
-296.52252 -146.18767 1194 0.4969843 0.034403179 0.084393352 0.50527143
-293.03043 -147.34048 1191.6 0.61029887 0.11050391 -0.019601077 0.62053204
-288.2959 -147.76456 1190 0.51218748 -0.12072235 0.080518663 0.53234684
-221.81908 -148.10901 1190 0.41083738 -0.45646143 -0.45929906 0.76687682
-219.28149 -147.22446 1194 0.38753706 -0.45780441 -0.45951417 0.75559455
-295.52914 -142.59798 1190 0.49337941 0.23920235 0.015226513 0.54851878
-292.4292 -143.63129 1190 0.47704422 0.12354451 0.040853649 0.49447289
-288.2959 -144.66461 1190 0.49479645 -0.16298801 0.093524426 0.52927822
-221.64685 -142.08133 1190 0.40255266 -0.31093007 -0.44603407 0.67651498
-219.1087 -142.38611 1194 0.38244417 -0.34347856 -0.46817344 0.69528943
-225.26346 -136.39806 1190 0.38956839 -0.25995994 -0.44879955 0.64866304
-222.53516 -137.66237 1192 0.38526678 -0.28577912 -0.46021783 0.66475606
-219.7999 -137.89334 1194 0.37032816 -0.30166584 -0.47890663 0.67638505
-226.65488 -131.52567 1190.8 0.37076166 -0.26705202 -0.48280978 0.66474527
-222.78522 -132.63412 1193.3334 0.38174576 -0.31534475 -0.48307163 0.69175887
-231.46338 -126.06487 1190 0.3237792 -0.24049105 -0.5219987 0.65966016
-227.70984 -127.31123 1192 0.32483068 -0.27394253 -0.52813411 0.67785329
-222.91028 -127.52541 1194 -0.33091569 -0.48049071 0.17519544 0.60915512
-291.39587 -121.9316 1190 0.36725268 0.19782427 -0.59749812 0.72870642
-287.26257 -121.9316 1190 0.24854439 -0.78387898 0.15158127 0.83619225
-235.59665 -121.9316 1190 0.39191088 -0.26341844 -0.48501706 0.67692316
-231.7204 -122.4115 1191.3334 -0.18782373 -0.62757665 0.24465613 0.69927591
-227.39162 -122.57814 1193.4286 -0.21515772 -0.55916268 0.25065088 0.64944714
-223.94707 -122.34145 1194 -0.27560973 -0.51328176 0.21428154 0.62075394
-296.19138 -118.05999 1192.6666 0.37855005 -0.40142298 -0.098767549 0.5605315
-292.38882 -117.83437 1193 0.28452152 -0.76803446 0.12486252 0.82850474
-287.08395 -118.26128 1191.7142 0.26340631 -0.75831342 0.20796821 0.82926047
-282.09601 -116.76501 1190 0.34433627 -0.6877656 0.24014284 0.80576521
-278.99603 -115.73169 1190 0.39600182 -0.66954398 0.22524329 0.8098402
-236.97441 -117.10944 1190 0.41814798 -0.32994682 -0.48604077 0.72107434
-232.10985 -117.73537 1192 -0.15892851 -0.61844075 0.26526979 0.69144434
-227.05743 -117.15749 1194 -0.25421607 -0.5601421 0.22534567 0.65510738
-223.94707 -118.19429 1194 0.29956868 -0.329117 -0.57395744 0.72628272
-290.30176 -114.04712 1194 0.34100437 -0.70350945 0.23034701 0.81502718
-286.84579 -113.35593 1194 0.33745068 -0.70010954 0.24647154 0.81533706
-282.80801 -112.91481 1193 0.354978 -0.72293925 0.22901367 0.83731586
-278.30716 -112.28729 1190 0.38530147 -0.69501066 0.2294372 0.82712662
-237.92726 -112.75793 1191.3334 0.41778135 -0.40478286 -0.50117463 0.76783234
-232.24141 -113.01032 1194 -0.13785303 -0.60253906 0.28068304 0.67885178
-227.05745 -113.01033 1194 -0.24687913 -0.57203817 0.22711977 0.66314429
-286.84579 -108.51756 1194 0.34661365 -0.72820854 0.23916464 0.84120655
-283.04419 -108.86316 1194 0.31009668 -0.71823788 0.27165607 0.82814407
-278.31973 -107.47755 1193.4286 0.38757381 -0.70468456 0.23242359 0.83714664
-272.79611 -106.43182 1190 0.37577435 -0.69172114 0.25155747 0.82641739
-237.92728 -107.58554 1191.3334 -0.22945179 -0.52706975 0.25664878 0.62953889
-232.24139 -107.82636 1194 -0.17887363 -0.52197891 0.28307366 0.62015194
-228.09424 -107.82638 1194 -0.26322377 -0.53754818 0.22276792 0.63864726
-276.47787 -102.98801 1194 0.38547349 -0.65620792 0.26398796 0.80553603
-272.22128 -102.47047 1192 0.40960234 -0.65382957 0.24606746 0.80982494
-268.66284 -102.29855 1190 0.34420177 -0.70774299 0.26629871 0.83083689
-241.79657 -101.26523 1190 0.41301537 -0.26154613 -0.43538332 0.65463483
-238.06042 -102.46989 1192 0.36182845 -0.34720588 -0.52219087 0.72398549
-232.24139 -102.6424 1194 -0.1738894 -0.56954634 0.28820539 0.66157609
-228.09424 -103.6792 1194 0.38565198 -0.36646715 -0.51090455 0.73759681
-275.78668 -98.495239 1194 0.37967169 -0.62623978 0.29420745 0.78923059
-272.6763 -97.458443 1194 0.40162405 -0.6342032 0.26839888 0.79721612
-267.93054 -97.239624 1191.3334 0.3367154 -0.65706384 0.30322674 0.79815829
-263.15182 -96.443077 1190 0.30163521 -0.65112948 0.3246021 0.78760391
-246.61873 -95.754189 1190 0.33656755 -0.27729189 -0.49449494 0.65931308
-242.06516 -97.240791 1191.3334 -0.13320485 -0.618586 0.3080346 0.70375955
-237.42537 -97.458443 1194 -0.15308133 -0.61527669 0.29097468 0.69761419
-232.50061 -97.717636 1194 -0.16971539 -0.62963068 0.27664864 0.70835906
-272.67627 -93.311279 1194 0.34953475 -0.62973911 0.31843564 0.78749424
-267.72784 -92.004616 1193.2 0.36730653 -0.61998791 0.30720884 0.78337497
-262.04962 -92.172028 1190 0.33415133 -0.61297297 0.32951188 0.77199167
-257.29633 -90.932045 1190 0.23035049 -0.59088159 0.37489617 0.73671538
-251.09644 -90.932045 1190 -0.10091317 -0.63049322 0.32868215 0.71814841
-246.96317 -91.965363 1190 0.35605034 -0.32349265 -0.50228107 0.69548953
-242.4727 -92.222389 1193.3334 -0.11733793 -0.63335741 0.31602693 0.7174837
-237.42535 -92.27449 1194 0.33038995 -0.28850108 -0.51533586 0.67672849
-234.31499 -93.311279 1194 0.32833186 -0.2970227 -0.52395493 0.6859687
-267.23312 -87.349724 1194 0.3893021 -0.59878254 0.30574295 0.77690119
-261.42963 -87.832092 1190 0.35039818 -0.56928748 0.33670044 0.74848801
-257.64078 -87.487648 1190 0.22654426 -0.605084 0.37971485 0.74942136
-251.09644 -87.832085 1190 -0.080626555 -0.62905455 0.34430477 0.72163433
-247.08716 -87.328796 1191.6 0.38456291 -0.35651046 -0.4933272 0.71997225
-242.60931 -87.09053 1194 0.33387068 -0.29579383 -0.50259578 0.6719867
-237.42537 -89.164108 1194 0.30585611 -0.26946598 -0.51188552 0.65435976
-289.32922 -80.598854 1190 0.6286658 0.14705686 -0.51712602 0.82720357
-265.41876 -81.90657 1194 0.32185596 -0.69121099 0.31284961 0.82415938
-261.86957 -82.802116 1192 0.32249516 -0.63809621 0.33653772 0.79020727
-257.29633 -82.665489 1190 0.15794188 -0.70968127 0.35567495 0.80938113
-251.97737 -82.441025 1190.5 -0.038355656 -0.6916523 0.34360078 0.77325004
-247.83394 -82.47168 1193.2 0.35460371 -0.3083775 -0.49335963 0.68135464
-244.68291 -81.90657 1194 -0.14111632 -0.6488502 0.30658501 0.73137867
-288.77869 -77.62915 1192 0.56364882 0.10576616 -0.66435671 0.87764245
-265.41876 -78.796188 1194 0.31911492 -0.68606913 0.31988159 0.8214922
-261.96277 -78.104996 1194 0.3086952 -0.74109 0.29014 0.85363239
-257.12442 -77.759399 1194 0.17915845 -0.78222144 0.30363661 0.85799962
-251.94044 -77.759399 1194 0.22395045 -0.18490994 -0.47459251 0.55640233
-248.13887 -78.104996 1194 0.28602678 -0.23964274 -0.48793167 0.61426157
-292.0477 -73.52887 1192.6666 0.55298734 0.38897422 -0.64014894 0.93106747
-288.22818 -73.612228 1194 0.53945237 0.43303311 -0.62818104 0.9344185
-257.12442 -74.649025 1194 0.16673023 -0.75148237 0.32988188 0.83746445
-250.90366 -74.649025 1194 -0.0067907572 -0.73927164 0.32802334 0.80880654
-217.59694 -152.00551 1199 0.32966781 -0.51298046 -0.50649065 0.79269326
-217.38872 -147.84097 1199 0.34454352 -0.48715386 -0.50229192 0.7799527
-214.47354 -147.84097 1199 0.32395479 -0.48821381 -0.53242433 0.7916913
-217.24989 -142.28827 1199 0.35159701 -0.39288485 -0.51081455 0.73410523
-214.47354 -143.67645 1199 0.34142882 -0.41132727 -0.52258229 0.7475667
-220.72034 -135.34738 1199 0.35726759 -0.37430993 -0.51620018 0.73089719
-217.59694 -137.42964 1199 0.34773543 -0.37089819 -0.5194084 0.7268222
-220.72034 -132.22397 1199 0.3484996 -0.36955631 -0.52916342 0.73351061
-217.94398 -132.57101 1199 0.34386626 -0.38701215 -0.53620172 0.74534196
-220.72034 -128.05945 1199 0.3745271 -0.39419121 -0.50982392 0.74537081
-218.63808 -128.05945 1199 0.36927459 -0.37788844 -0.51115429 0.73514766
-221.76147 -122.85377 1199 0.38828897 -0.38269866 -0.50209594 0.74116588
-218.63808 -123.89491 1199 0.39839086 -0.38393599 -0.48153025 0.73348045
-222.38615 -117.43988 1199 0.38546577 -0.31660563 -0.48760229 0.69755214
-296.72308 -114.5247 1199 0.44485402 -0.74826634 0.095807329 0.87577206
-292.21152 -112.44244 1199 0.44374692 -0.74164373 0.14580588 0.87647367
-289.43515 -111.40131 1199 0.39681053 -0.73168826 0.20173608 0.85646003
-226.96713 -110.36017 1199 0.386971 -0.35414165 -0.51192582 0.7329604
-223.10008 -113.03737 1199 0.41252774 -0.32600635 -0.46096933 0.699251
-291.51743 -108.2779 1199 0.41606793 -0.71014202 0.20289962 0.84769243
-287.35291 -106.19564 1199 0.38747787 -0.69717956 0.23500931 0.83152139
-283.18835 -106.19563 1199 0.34059829 -0.70385087 0.25846469 0.82353944
-226.96713 -107.23677 1199 0.39252168 -0.42004797 -0.52035224 0.77542251
-224.88487 -107.23677 1199 0.42294779 -0.3799198 -0.47541326 0.74110842
-287.35291 -104.11337 1199 0.34656709 -0.66597086 0.2796936 0.80115819
-282.14722 -103.07223 1199 0.36729771 -0.66624296 0.27075386 0.80752391
-279.02383 -102.0311 1199 0.37552249 -0.6335324 0.28027463 0.78799385
-227.66121 -102.72519 1199 0.4186857 -0.37389439 -0.48531729 0.74204284
-224.88487 -103.07224 1199 0.43480656 -0.34884521 -0.44893709 0.7157473
-282.14722 -97.86657 1199 0.3519724 -0.61625606 0.30726653 0.77334911
-278.50327 -97.345993 1199 0.39729398 -0.59932715 0.28255504 0.7725755
-231.13167 -95.784294 1199 0.38019508 -0.24704047 -0.46278095 0.64787614
-228.00829 -97.866554 1199 0.41324717 -0.28591633 -0.45230469 0.67609239
-224.88487 -99.94883 1199 0.43017685 -0.31392717 -0.44254884 0.69242465
-281.10608 -93.702026 1199 0.36304671 -0.54138494 0.33063933 0.73090559
-277.63565 -93.007935 1199 0.37763554 -0.56737977 0.3092545 0.74844289
-273.81815 -91.619766 1199 0.36358863 -0.60679919 0.30303439 0.76956594
-235.2962 -91.619766 1199 0.3698864 -0.26457423 -0.47599444 0.65832072
-232.17281 -92.660896 1199 0.4032346 -0.23889087 -0.4265216 0.63370943
-229.04941 -93.702026 1199 0.39947265 -0.23758221 -0.43019602 0.63331848
-291.51743 -85.372963 1199 -0.097119033 -0.31939772 0.37338465 0.50086236
-288.39404 -85.372963 1199 0.089318328 -0.32940954 0.40021867 0.52598804
-281.10608 -87.455231 1199 0.21653375 -0.4326016 0.39647442 0.62547821
-277.9827 -87.455231 1199 0.319859 -0.50855732 0.3602162 0.70049697
-273.37195 -87.157768 1199 0.31931373 -0.56677788 0.34435564 0.73605657
-237.08098 -86.860298 1199 0.37285495 -0.27371156 -0.47848707 0.66549879
-233.21394 -89.537498 1199 0.42047969 -0.24966665 -0.41500616 0.64137876
-291.51743 -83.290695 1199 -0.2109485 -0.2047551 0.22964448 0.37304223
-287.76935 -82.041336 1199 -0.11583635 -0.27424639 0.32916513 0.44382295
-281.10608 -82.249557 1199 0.18470332 -0.50658399 0.4084897 0.67646617
-278.32974 -82.596603 1199 0.16491012 -0.54912037 0.40082085 0.69956118
-272.77701 -82.249565 1199 0.27215421 -0.6147095 0.36286649 0.76394224
-268.61249 -82.249557 1199 0.33614159 -0.66081798 0.31490493 0.80550396
-242.58414 -82.249565 1199 0.35450879 -0.26872241 -0.4780702 0.65302324
-237.79492 -82.457787 1199 0.35241014 -0.28545547 -0.49198166 0.66912156
-286.31177 -78.085022 1199 -0.1686464 -0.49116778 0.37092364 0.63817847
-282.14722 -78.085022 1199 -0.060263023 -0.53007823 0.40428182 0.6693716
-278.32974 -78.432068 1199 0.1206679 -0.62093526 0.40468413 0.75092649
-272.77704 -78.293251 1199 0.23304747 -0.67406392 0.35519463 0.79676628
-267.9184 -77.737976 1199 0.33601582 -0.69329751 0.30295086 0.82785702
-264.44794 -77.043892 1199 0.31173176 -0.71838182 0.2995328 0.83843249
-246.40166 -77.737984 1199 0.30805561 -0.23272821 -0.48210728 0.61764723
-242.58414 -78.085022 1199 0.32772151 -0.29382873 -0.50403637 0.66917068
-238.41962 -78.085022 1199 -0.15012494 -0.61562282 0.31137878 0.7060352
-291.51743 -70.797089 1199 0.25198209 -0.16858478 0.071101785 0.31140208
-287.35291 -72.879356 1199 0.44551361 -0.34305698 -0.21286502 0.60123372
-267.05078 -73.399925 1199 0.32830808 -0.70825154 0.30160737 0.83688313
-262.62598 -72.61908 1199 0.23173398 -0.75183356 0.31477645 0.84737152
-257.16003 -71.838226 1199 0.15839811 -0.75295901 0.32593882 0.8356275
-253.2037 -72.462906 1199 0.047051582 -0.77728856 0.30861726 0.83763713
-247.78983 -72.879356 1199 0.25047511 -0.2163502 -0.49320486 0.59396648
-243.10471 -73.399925 1199 0.32277232 -0.29881185 -0.50650793 0.67083591
-291.51743 -67.673691 1199 0.24757372 -0.12702209 0.1036576 0.29693815
-288.39404 -67.673691 1199 0.29307687 -0.19938131 0.051780969 0.35822931
-261.32455 -68.714821 1199 0.20886073 -0.73758471 0.33776462 0.83769858
-257.16003 -68.714821 1199 0.16046706 -0.77539814 0.31375262 0.85172331
-252.99548 -68.714821 1199 0.074924484 -0.77556229 0.31430691 0.84017819
-248.83095 -67.673683 1199 0.0090485662 -0.71403348 0.34337229 0.79235739
-291.51743 -64.550285 1199 -0.14759311 0.17601138 -0.0086023808 0.22986461
-288.39404 -64.550285 1199 0.28526509 -0.23935887 0.084209591 0.38178539
-216.44258 -153.34831 1203 -0.46190414 -0.35803843 0.09657529 0.59234595
-212.40343 -151.11981 1203 -0.46320438 -0.36373895 0.094402194 0.5964697
-215.18904 -146.24498 1203 0.31576282 -0.41912067 -0.53306484 0.74801499
-212.05522 -147.28958 1203 0.30770335 -0.45305377 -0.54168528 0.77029991
-215.18904 -142.06656 1203 0.31941006 -0.3793177 -0.53524232 0.72964996
-212.40343 -143.45937 1203 0.31704408 -0.37592307 -0.5335927 0.72564197
-215.18904 -137.88812 1203 0.29988348 -0.40375674 -0.57000333 0.7601667
-213.09982 -135.7989 1203 0.30524158 -0.38238582 -0.56553733 0.74781269
-215.88544 -132.31689 1203 0.31584513 -0.37684005 -0.56294131 0.74744195
-212.40343 -133.01329 1203 0.30532211 -0.36471891 -0.56235951 0.73653901
-216.44258 -127.8599 1203 0.33820975 -0.35036099 -0.53339463 0.72225237
-217.97467 -121.87082 1203 0.39726248 -0.34041986 -0.46503037 0.69996887
-218.67107 -118.38879 1203 0.41180897 -0.32188219 -0.43997481 0.68320757
-297.36481 -112.12115 1203 0.44587317 -0.70157057 0.17006411 0.84848452
-294.57916 -111.77295 1203 0.42680946 -0.70606136 0.19270772 0.84724563
-222.50128 -110.72834 1203 0.42454264 -0.33907586 -0.44691834 0.70352316
-219.36748 -113.86217 1203 0.41613528 -0.31358993 -0.43992865 0.68194169
-292.48996 -106.54991 1203 0.41873527 -0.64697689 0.24323852 0.80813569
-222.50128 -107.59452 1203 0.4319874 -0.37175864 -0.45456916 0.72900671
-291.09717 -102.37149 1203 0.36972678 -0.58737707 0.30148602 0.7567057
-287.26691 -101.32688 1203 0.33932459 -0.59220862 0.31381202 0.75121915
-222.84949 -103.76429 1203 0.44916582 -0.37998146 -0.434549 0.73141551
-290.40076 -97.148453 1203 0.36914253 -0.51977605 0.32629925 0.71617359
-287.26691 -97.148453 1203 0.33456725 -0.54935777 0.32969001 0.72278953
-225.63512 -97.148453 1203 0.43026254 -0.26109338 -0.40715891 0.64735925
-291.96765 -93.492325 1203 0.17939052 -0.35204625 0.37670803 0.54591799
-287.26691 -92.970032 1203 0.25690472 -0.4001877 0.37015909 0.60263419
-283.43671 -92.621826 1203 0.27691334 -0.4581278 0.36210859 0.64628536
-279.95468 -91.925415 1203 0.30052617 -0.52747655 0.35215884 0.7018286
-228.76894 -92.970024 1203 0.40646932 -0.21582568 -0.41140604 0.61729491
-291.09717 -88.44339 1203 -0.025411949 -0.36461836 0.35892797 0.51227105
-287.05798 -88.164833 1203 0.16848478 -0.36912268 0.38907647 0.56215584
-284.13312 -87.746986 1203 0.16436423 -0.40270787 0.39574504 0.58805048
-232.73845 -87.329147 1203 0.41049671 -0.27596825 -0.44891536 0.66797531
-229.81354 -89.836205 1203 0.41365597 -0.26202005 -0.43864053 0.65739733
-286.22232 -83.568558 1203 0.11825339 -0.39855048 0.39746302 0.57515496
-284.13312 -82.523956 1203 0.11824777 -0.46956888 0.40401927 0.63064176
-277.86548 -81.479347 1203 0.18626061 -0.56294012 0.39642492 0.71326524
-236.08118 -81.479347 1203 0.38898656 -0.34816247 -0.49942324 0.72246188
-233.99197 -82.523956 1203 0.39243925 -0.32768542 -0.48805678 0.70681375
-283.0885 -75.211708 1203 0.0070004612 -0.67409647 0.37850234 0.77312291
-277.86548 -75.734009 1203 0.13706209 -0.71228147 0.35258219 0.80650175
-272.99063 -75.908112 1203 0.24552424 -0.69497043 0.34219497 0.81262749
-240.25961 -75.211708 1203 -0.12979484 -0.63804275 0.31098932 0.72156745
-236.60349 -76.77861 1203 0.37632582 -0.35586858 -0.5066601 0.72454679
-233.99199 -77.300919 1203 0.39594668 -0.34169179 -0.48757508 0.71502203
-286.22232 -72.077881 1203 0.41804853 -0.26114082 -0.37650591 0.62025464
-283.43671 -72.426086 1203 0.33633444 -0.2329503 -0.42861709 0.59253633
-277.86548 -72.077881 1203 0.097028568 -0.73482692 0.35711247 0.82274812
-272.64243 -72.077881 1203 0.2529521 -0.74477124 0.3126893 0.84642988
-269.50861 -72.077881 1203 0.26255819 -0.70940894 0.32925329 0.82498825
-241.30421 -72.077881 1203 -0.12210452 -0.65248513 0.3111746 0.73312753
-237.12579 -72.077881 1203 0.38539547 -0.31405395 -0.47514054 0.68769038
-286.22232 -67.89946 1203 0.41454977 -0.27962115 -0.37328044 0.62400144
-267.00156 -68.108383 1203 0.28078154 -0.73373908 0.3110213 0.844953
-262.19635 -66.854851 1203 0.20987329 -0.7587918 0.3146472 0.8478294
-258.01794 -66.854851 1203 0.16602129 -0.7534467 0.32434791 0.83692688
-253.83951 -66.854851 1203 0.1411411 -0.68663776 0.36131996 0.78863448
-246.52725 -67.89946 1203 -0.064518332 -0.64878136 0.3441177 0.73722237
-242.34882 -67.89946 1203 -0.13003713 -0.66553271 0.3059994 0.74396175
-238.17039 -68.944061 1203 0.3499614 -0.2573365 -0.46988243 0.6399098
-286.22232 -64.765633 1203 0.45499688 -0.36913213 -0.26678789 0.64378291
-261.84818 -64.069229 1203 0.19862399 -0.74333453 0.33345121 0.83856273
-257.80902 -63.094261 1203 0.19407743 -0.73790652 0.33388934 0.83285898
-252.79492 -62.676418 1203 0.14546585 -0.72419029 0.34487289 0.81519884
-247.57185 -62.676422 1203 -0.04253263 -0.68549389 0.34431398 0.76828575
-244.43803 -62.676422 1203 -0.11490047 -0.67364848 0.32048956 0.75479662
-250.70569 -58.497993 1203 0.11404878 -0.71978503 0.35839969 0.81212556
-248.61647 -58.497993 1203 0.0042254627 -0.63628787 0.38136011 0.74183267
-212.41095 -155.81462 1207 -0.47130859 -0.28186888 0.079130307 0.55483639
-209.61607 -155.11589 1207 -0.47173303 -0.27978605 0.075122446 0.5535844
-211.71223 -153.01973 1207 -0.47493422 -0.33275926 0.089897648 0.58683288
-209.61607 -153.01973 1207 -0.45431492 -0.34340242 0.11545384 0.58108246
-208.56799 -147.77933 1207 0.34212738 -0.41472301 -0.47707415 0.71878093
-212.41095 -141.14148 1207 0.32362112 -0.42342106 -0.533548 0.75411505
-208.91736 -143.93636 1207 0.34041262 -0.4208768 -0.49590138 0.73412275
-212.41095 -137.64789 1207 0.31872377 -0.42052957 -0.54465342 0.75833851
-208.56799 -137.29852 1207 0.32342151 -0.42231277 -0.54061007 0.75842518
-211.71223 -132.05812 1207 0.31034705 -0.38105765 -0.56275398 0.74713606
-208.91736 -133.45557 1207 0.33037138 -0.42349717 -0.53741968 0.75981247
-215.90456 -125.76964 1207 0.34554556 -0.30447888 -0.5072431 0.68513113
-213.28436 -128.38985 1207 0.32650825 -0.30557621 -0.52695251 0.69113195
-215.90456 -122.6254 1207 0.37504947 -0.32250607 -0.48011529 0.68933517
-213.8084 -123.67348 1207 0.3530584 -0.31413555 -0.50399065 0.69089651
-217.302 -117.385 1207 0.37815824 -0.33123523 -0.49040264 0.7022928
-220.09688 -111.09652 1207 0.40773112 -0.34606743 -0.47143638 0.71292329
-218.00072 -113.19268 1207 0.3890107 -0.33687624 -0.48595101 0.70778763
-220.09688 -107.95228 1207 0.38728076 -0.34310222 -0.50199026 0.72090203
-293.46249 -101.6638 1207 0.48746717 -0.47757632 0.23625606 0.72216362
-221.7738 -102.29265 1207 0.45408472 -0.34565148 -0.40920472 0.70222247
-293.46249 -97.471474 1207 0.47938305 -0.50647998 0.24409939 0.73886031
-224.2892 -97.471474 1207 0.44583699 -0.26220685 -0.37972569 0.64164996
-227.22383 -91.811844 1207 0.43418381 -0.30639014 -0.44346124 0.69213319
-224.2892 -94.327232 1207 0.4432286 -0.27185497 -0.39827454 0.65496516
-230.57768 -86.990669 1207 0.42187545 -0.30748072 -0.46167621 0.696899
-228.48152 -86.990669 1207 0.42031488 -0.32904938 -0.47445273 0.71417332
-231.62576 -82.798347 1207 0.42517456 -0.36525503 -0.48156065 0.73897582
-228.48152 -82.798347 1207 0.4111855 -0.36235756 -0.49166924 0.73628467
-231.62575 -77.557945 1207 0.39859813 -0.36942106 -0.50020897 0.73862129
-282.98169 -71.269463 1207 0.34241921 -0.20656222 -0.43173298 0.58848298
-278.78937 -72.317543 1207 0.054483388 -0.78151703 0.30440822 0.84047705
-233.72192 -72.317543 1207 0.39145675 -0.28548211 -0.46796131 0.67359203
-285.07785 -68.125221 1207 0.39925933 -0.15882865 -0.31604689 0.53340435
-281.93359 -68.125221 1207 0.22888878 -0.18250045 -0.45302668 0.539379
-277.39194 -68.474579 1207 0.11274979 -0.75782895 0.33299303 0.83540505
-272.9201 -67.915604 1207 0.24907364 -0.74860024 0.3106015 0.84788758
-237.56488 -67.775856 1207 0.37802058 -0.28133959 -0.46660006 0.66314942
-234.77 -69.173302 1207 0.38489664 -0.27016854 -0.45696956 0.65571153
-285.07785 -64.98098 1207 0.3653456 -0.14710602 -0.31840912 0.50646019
-270.40472 -63.932899 1207 0.29264265 -0.71137017 0.32208025 0.83392024
-267.2605 -62.884823 1207 0.28681245 -0.70678169 0.32314461 0.82838649
-263.41751 -61.487377 1207 0.22230849 -0.7178964 0.33813265 0.82409346
-259.92392 -60.788658 1207 0.18350984 -0.70528764 0.35210407 0.80937248
-242.10657 -62.884823 1207 0.34959137 -0.2663058 -0.47431576 0.646613
-238.96233 -64.98098 1207 0.34661967 -0.27019027 -0.47923493 0.65024155
-263.06818 -57.644421 1207 0.24479488 -0.75308061 0.32332042 0.85533094
-257.82776 -57.644421 1207 0.2199378 -0.7640481 0.31452945 0.85502684
-252.93672 -57.295059 1207 0.15242374 -0.81260586 0.28177518 0.87347496
-246.92773 -57.434803 1207 0.25249895 -0.18096295 -0.45970988 0.55483013
-243.15463 -58.692501 1207 0.31897318 -0.17984435 -0.42571729 0.56153637
-210.31073 -151.42374 1211 0.35596621 -0.50889695 -0.40957284 0.74393409
-208.20763 -152.47528 1211 0.34140119 -0.54781151 -0.4182733 0.76915848
-210.31073 -140.90819 1211 0.30005854 -0.41877204 -0.5477047 0.75192124
-208.20763 -141.95975 1211 0.37051988 -0.46519372 -0.43152678 0.73478264
-210.31073 -130.39265 1211 0.2816101 -0.28523719 -0.55464739 0.68432319
-207.50659 -131.09369 1211 0.28946942 -0.28198111 -0.54091042 0.67519623
-211.36229 -127.23799 1211 0.30301106 -0.2699694 -0.53005892 0.66757894
-207.15607 -127.23799 1211 0.27910119 -0.25018841 -0.54282492 0.6596595
-211.99321 -122.82147 1211 0.29632562 -0.30054823 -0.56111616 0.70213205
-216.62006 -116.72246 1211 0.3549307 -0.30838811 -0.50820392 0.69235128
-212.67671 -117.77402 1211 0.33195087 -0.34904131 -0.54823166 0.72978026
-217.32109 -112.16573 1211 0.36722398 -0.34453508 -0.51358926 0.71925783
-212.93962 -111.99047 1211 -0.3395232 -0.48802006 0.17032959 0.6184268
-218.72316 -107.25848 1211 0.35502172 -0.35753083 -0.53969884 0.73833835
-212.41383 -106.20693 1211 -0.29422408 -0.54826772 0.1938093 0.65171111
-297.23917 -102.35122 1211 0.52990162 -0.44405815 0.19813639 0.71919501
-220.82628 -100.94915 1211 0.34197605 -0.3239727 -0.54548752 0.72073752
-218.72316 -103.05226 1211 0.34492594 -0.34508318 -0.54895753 0.73444581
-212.41386 -103.05227 1211 -0.2247934 -0.59755731 0.22304401 0.67628062
-221.87782 -97.794495 1211 0.38795581 -0.33561873 -0.50496227 0.71981698
-225.03249 -91.485168 1211 0.40237513 -0.30215639 -0.48264194 0.69724274
-222.40361 -93.0625 1211 0.40321785 -0.32231802 -0.48551831 0.70866179
-226.08405 -87.278954 1211 0.39357167 -0.35895127 -0.51781893 0.74288702
-222.92938 -88.330513 1211 0.37577027 -0.37218243 -0.53390718 0.75151843
-226.08405 -83.072739 1211 0.37867701 -0.37279364 -0.53251684 0.75229353
-227.39848 -78.077866 1211 0.37827396 -0.35485888 -0.52305663 0.73661679
-231.34181 -72.557205 1211 0.40893567 -0.26781452 -0.44582641 0.66159976
-228.53767 -72.907722 1211 0.39234215 -0.26202503 -0.45795199 0.65750247
-282.86792 -65.196327 1211 0.092953362 -0.066332221 -0.35115162 0.36925298
-278.13596 -65.722107 1211 0.17743629 -0.74979967 0.32648683 0.83682549
-273.40396 -65.196327 1211 0.26476485 -0.73542869 0.31172678 0.84150422
-236.24907 -65.897362 1211 0.40786391 -0.27418709 -0.44365343 0.66208756
-232.91916 -67.825211 1211 0.41418186 -0.26746088 -0.43679503 0.6586895
-276.55862 -62.041664 1211 0.18752617 -0.8041091 0.2929692 0.87612122
-272.70291 -61.691147 1211 0.28838062 -0.6950804 0.33054948 0.82192647
-237.65112 -62.041668 1211 0.38764077 -0.28842878 -0.46165073 0.66826487
-233.44492 -63.09322 1211 0.39360437 -0.30090448 -0.46531603 0.6796962
-275.50708 -58.887005 1211 0.29847839 -0.64952505 0.35927504 0.80003166
-238.7027 -57.835453 1211 0.36358252 -0.28980258 -0.47637749 0.66566753
-208.89536 -124.49319 1215 0.31449792 -0.31707463 -0.53713697 0.6985423
-211.0054 -118.16302 1215 0.27763066 -0.3616133 -0.5967086 0.75093549
-208.89536 -117.108 1215 0.31283164 -0.37443712 -0.56661606 0.74774361
-212.06042 -113.94292 1215 0.30926245 -0.36666033 -0.57658345 0.75002104
-216.80806 -108.14027 1215 -0.29595217 -0.53880763 0.19570768 0.64513785
-212.06042 -109.72281 1215 -0.22087446 -0.496759 0.2453133 0.59643412
-217.33557 -101.8101 1215 -0.26209381 -0.57516736 0.21009062 0.66606963
-212.06042 -101.28259 1215 -0.20182405 -0.57554621 0.24162014 0.65602338
-217.33557 -98.117516 1215 0.25421807 -0.24005567 -0.57220364 0.67057478
-213.11546 -98.117508 1215 0.18280819 -0.20903507 -0.59283459 0.65465057
-221.55568 -91.787354 1215 0.37277806 -0.34395924 -0.52777773 0.73199779
-217.63699 -93.445244 1215 0.32280093 -0.30456093 -0.55597395 0.71138233
-213.11546 -92.842377 1215 0.3079668 -0.26770175 -0.55043048 0.68518716
-222.25903 -87.215569 1215 0.41015205 -0.37978289 -0.50213343 0.75139719
-219.44562 -87.567245 1215 0.36278141 -0.32025999 -0.52766019 0.71596235
-222.61072 -82.292107 1215 0.42006221 -0.38979149 -0.49624869 0.75805831
-219.44562 -82.292107 1215 0.4075343 -0.38917467 -0.50783759 0.7585777
-225.77579 -75.961945 1215 0.39794582 -0.28712881 -0.48070323 0.68693483
-222.6107 -77.016968 1215 0.41741565 -0.31301832 -0.47016603 0.70233351
-226.47913 -72.44519 1215 0.40159404 -0.22998226 -0.432771 0.633609
-222.6107 -73.851891 1215 0.39600971 -0.24728648 -0.45303109 0.65054703
-232.10594 -66.466705 1215 0.42776793 -0.27002054 -0.42751741 0.6623199
-229.15189 -67.943741 1215 0.42279401 -0.26147747 -0.42734826 0.65555453
-291.18747 -63.30162 1215 0.11691774 -0.015419275 -0.25522429 0.2811529
-288.02237 -63.30162 1215 0.11147571 -0.017629266 -0.26461151 0.28767496
-282.21973 -62.774105 1215 0.029916249 -0.042834401 -0.31267107 0.31700626
-232.80931 -61.894917 1215 0.44468287 -0.31096059 -0.42744344 0.69075847
-229.9959 -62.246593 1215 0.44911599 -0.33355156 -0.43408793 0.70809191
-213.99248 -95.343185 1220 0.23205999 -0.23759376 -0.58374274 0.67160869
-217.17059 -91.105705 1220 0.33215344 -0.25378358 -0.52027798 0.66739881
-213.99248 -91.105705 1220 0.32745445 -0.25357938 -0.52469492 0.6684562
-217.10042 -87.347549 1220.8 0.38387206 -0.3301484 -0.51008213 0.71870685
-213.45586 -88.142952 1223 0.48133227 -0.27942586 -0.22934051 0.60196066
-217.8774 -82.698486 1221 0.4169772 -0.3676616 -0.48789114 0.73965043
-220.34869 -77.333908 1220 0.44052538 -0.25746429 -0.39935893 0.6479491
-218.22995 -78.39328 1220 0.45218995 -0.31563884 -0.41847655 0.6922617
-222.12355 -71.799728 1222 0.43228865 -0.24156673 -0.40782151 0.64151877
-226.85217 -67.420311 1220.8 0.43358532 -0.23600452 -0.40427184 0.63806742
-223.89149 -67.379326 1222 0.44293532 -0.2435267 -0.39393431 0.64084411
-287.08893 -61.443386 1220 0.10147504 0.00044241548 -0.23734441 0.25812739
-283.9108 -61.443386 1220 0.11898714 -0.01086542 -0.2789467 0.30345884
-227.42456 -62.796593 1221.6 0.46768785 -0.35179779 -0.42763984 0.72482377
-223.19682 -63.770523 1224 0.47477356 -0.27851826 -0.37236419 0.66455811
-219.66096 -71.44313 1228 0.49733266 -0.30564058 -0.32960725 0.6703707
-221.79359 -67.177872 1228 0.46724945 -0.27496657 -0.38538101 0.66516703
-219.66096 -68.244186 1228 0.50222421 -0.31155205 -0.32793802 0.6758973
-222.85991 -62.912605 1228 0.47424626 -0.28772455 -0.38127458 0.67310119
-220.55536 -66.380737 1233 0.51077968 -0.27715826 -0.25389138 0.63417143
